ply
format ascii 1.0
comment PCL generated
element vertex 1156
property float x
property float y
property float z
property uchar red
property uchar green
property uchar blue
element camera 0
property float view_px
property float view_py
property float view_pz
property float x_axisx
property float x_axisy
property float x_axisz
property float y_axisx
property float y_axisy
property float y_axisz
property float z_axisx
property float z_axisy
property float z_axisz
property float focal
property float scalex
property float scaley
property float centerx
property float centery
property int viewportx
property int viewporty
property float k1
property float k2
end_header
0.090720266 0.084692024 -0.35912523 255 0 255
0.09310098 0.084249154 -0.36335757 77 175 74
0.090293519 0.085047804 -0.35301396 255 0 255
0.087629952 0.071410835 -0.34352255 77 175 74
0.086732537 0.07222303 -0.33529469 77 175 74
0.088839099 0.070969567 -0.34410977 77 175 74
0.090019375 0.067102082 -0.3328872 77 175 74
0.081226289 0.083896905 -0.33869407 77 175 74
0.077488177 0.087812804 -0.3451896 77 175 74
0.078660943 0.090649672 -0.34675324 77 175 74
0.087758638 0.083302937 -0.34672654 255 0 255
0.078146845 0.0883803 -0.34116057 77 175 74
0.081025936 0.081884593 -0.34744927 77 175 74
0.076563902 0.091476403 -0.34674042 77 175 74
0.080009632 0.082299225 -0.33386999 77 175 74
0.09020254 0.084446386 -0.3446542 255 0 255
0.091666341 0.084213093 -0.34525135 77 175 74
0.1031743 0.040765237 -0.32880297 77 175 74
0.098515332 0.046523284 -0.32017145 77 175 74
0.095667511 0.054067221 -0.32270145 77 175 74
0.092495017 0.060091749 -0.32126033 77 175 74
0.09273015 0.059850313 -0.31831017 77 175 74
0.091279037 0.06182038 -0.32505766 77 175 74
0.095879972 0.05089958 -0.32186565 77 175 74
0.09688098 0.052131105 -0.32465455 77 175 74
0.092217065 0.059016667 -0.32669386 77 175 74
0.091967419 0.063339144 -0.328141 77 175 74
0.095979817 0.05368574 -0.32406935 77 175 74
0.09582676 0.053794049 -0.32444739 77 175 74
0.090230204 0.062142733 -0.31866309 77 175 74
0.10175995 0.039035767 -0.30518678 77 175 74
0.097735405 0.044443779 -0.30229071 77 175 74
0.09667559 0.045996889 -0.3019869 77 175 74
0.10263892 0.03921115 -0.31602558 77 175 74
0.091246344 0.055870205 -0.30293334 77 175 74
0.092281982 0.056402754 -0.310164 77 175 74
0.093189932 0.056659829 -0.30832973 77 175 74
0.095234334 0.053022992 -0.31527573 77 175 74
0.090871632 0.061297383 -0.31104887 77 175 74
0.090712048 0.057597943 -0.30716804 77 175 74
0.096171498 0.050520238 -0.31352967 77 175 74
0.090886801 0.058787096 -0.30129755 77 175 74
0.09572912 0.053102076 -0.30662641 77 175 74
0 0 0 0 0 0
0.093277201 0.057505924 -0.30806464 77 175 74
0.093827829 0.058806267 -0.3015494 77 175 74
0 0 0 0 0 0
0 0 0 0 0 0
0.09725108 0.051102817 -0.30317017 77 175 74
0.071952879 0.094617493 -0.31866926 77 175 74
0.085706502 0.06961035 -0.32375273 77 175 74
0.083778493 0.073277473 -0.3191565 77 175 74
0.082043231 0.07622312 -0.32367012 77 175 74
0.087191932 0.068528712 -0.32415435 77 175 74
0.080862097 0.078643233 -0.31999964 77 175 74
0.084720343 0.077613637 -0.31902045 77 175 74
0.084262013 0.073876224 -0.32654116 77 175 74
0.081439003 0.078514107 -0.32912523 77 175 74
0.084582463 0.072093323 -0.3255589 77 175 74
0.088362321 0.066114858 -0.32602793 77 175 74
0.07629621 0.088971756 -0.32211885 77 175 74
0.085584179 0.080694556 -0.33084732 255 0 255
0.080508627 0.08175654 -0.32172394 77 175 74
0.076253541 0.09028855 -0.32964864 77 175 74
0.075028151 0.091662414 -0.31974363 77 175 74
0.074639671 0.095013559 -0.33036998 77 175 74
0.0750724 0.092812084 -0.32482567 77 175 74
0.082190439 0.080781735 -0.33110172 77 175 74
0.080362365 0.080188043 -0.32172102 77 175 74
0.089276023 0.082716756 -0.32343915 255 0 255
0.090254642 0.084777489 -0.32428449 77 175 74
0.08861611 0.08227843 -0.31742933 255 0 255
0.083335064 0.079348266 -0.31483138 77 175 74
0.083775923 0.073463619 -0.3079631 77 175 74
0.086261839 0.067820385 -0.30451301 77 175 74
0.084655941 0.069090165 -0.31034231 77 175 74
0.084657535 0.076318793 -0.30859187 77 175 74
0.087391876 0.066781305 -0.31545722 77 175 74
0.088816456 0.067647398 -0.30318919 77 175 74
0.075932324 0.09036161 -0.30158758 77 175 74
0.080124319 0.081604846 -0.30927911 77 175 74
0.075531535 0.086980507 -0.31015545 77 175 74
0.077051543 0.084861144 -0.30791289 77 175 74
0.074936956 0.088602573 -0.30619568 77 175 74
0.087096557 0.084162869 -0.30130205 77 175 74
0.079422735 0.080272608 -0.30483955 77 175 74
0.089162357 0.082670972 -0.30783251 77 175 74
0.090161517 0.081507675 -0.31157863 77 175 74
0.10422339 0.054426625 -0.30133036 77 175 74
0.10944036 0.04552114 -0.301047 77 175 74
0 0 0 0 0 0
0.10397831 0.035110932 -0.31192005 77 175 74
0 0 0 0 0 0
0.10559003 0.042539652 -0.35426456 77 175 74
0.10755397 0.035263661 -0.34223604 77 175 74
0.10583058 0.034543179 -0.31077936 77 175 74
0.10596394 0.037038833 -0.34134531 77 175 74
0.10949296 0.034888376 -0.35415074 77 175 74
0.10711028 0.038066845 -0.34825966 77 175 74
0.10443034 0.043900374 -0.3444168 77 175 74
0.10398191 0.034285862 -0.30657628 77 175 74
0.10945444 0.035174672 -0.34967566 77 175 74
0.10666431 0.034568727 -0.31809437 77 175 74
0.10445314 0.038342003 -0.32552218 77 175 74
0.10676131 0.033462692 -0.32077566 77 175 74
0.10365069 0.039004318 -0.31928471 77 175 74
0.10714946 0.035874259 -0.33226991 77 175 74
0.10525631 0.041996446 -0.35152027 77 175 74
0 0 0 0 0 0
0 0 0 0 0 0
0 0 0 0 0 0
0.22001506 0.02054088 -0.39169857 0 255 0
0 0 0 0 0 0
0 0 0 0 0 0
0 0 0 0 0 0
0.17605187 -0.006080823 -0.39648572 0 255 0
0 0 0 0 0 0
0 0 0 0 0 0
0 0 0 0 0 0
0 0 0 0 0 0
0 0 0 0 0 0
0 0 0 0 0 0
0 0 0 0 0 0
0 0 0 0 0 0
0 0 0 0 0 0
0 0 0 0 0 0
0 0 0 0 0 0
0 0 0 0 0 0
0 0 0 0 0 0
0.23759085 0.031565212 -0.38760138 0 255 0
0 0 0 0 0 0
0 0 0 0 0 0
0 0 0 0 0 0
0.23243062 0.025339777 -0.39132389 0 255 0
0.23306563 0.026113767 -0.39076781 0 255 0
0 0 0 0 0 0
0 0 0 0 0 0
0 0 0 0 0 0
0.25046805 0.03866262 -0.38585314 0 255 0
0 0 0 0 0 0
0 0 0 0 0 0
0 0 0 0 0 0
0 0 0 0 0 0
0 0 0 0 0 0
0.066762932 -0.15132734 -0.28900462 228 26 28
0.061238326 -0.14263706 -0.28578255 228 26 28
0.061010476 -0.14050257 -0.29798192 228 26 28
0.069743782 -0.15413791 -0.28897062 228 26 28
0.067116857 -0.14929497 -0.30093622 228 26 28
0.064439826 -0.14689642 -0.2874912 228 26 28
0.069911078 -0.15399875 -0.29267254 228 26 28
0.053806927 -0.12579967 -0.29631627 228 26 28
0.056115665 -0.1288774 -0.29248995 228 26 28
0.057064094 -0.13315475 -0.2864565 228 26 28
0.058224086 -0.13437374 -0.29113767 228 26 28
0.061267663 -0.13632303 -0.29704446 228 26 28
0.061371334 -0.13925345 -0.28310829 228 26 28
0.063372254 -0.14754044 -0.28031665 228 26 28
0.065407507 -0.14970319 -0.28388372 228 26 28
0.06159851 -0.14048861 -0.27829093 228 26 28
0.060388926 -0.14349747 -0.27031478 228 26 28
0.065774553 -0.15187359 -0.27413371 228 26 28
0.059910927 -0.13954428 -0.27692565 228 26 28
0.060449898 -0.14033501 -0.27184343 228 26 28
0.051364493 -0.12615374 -0.27353725 228 26 28
0.056197684 -0.13493855 -0.27917546 228 26 28
0.058068577 -0.13795954 -0.27906108 228 26 28
0.057776876 -0.13501276 -0.27820852 228 26 28
0.049933553 -0.11779343 -0.29126099 228 26 28
0.049640011 -0.11951057 -0.29263562 228 26 28
0.047179658 -0.11498147 -0.29656446 228 26 28
0.052543942 -0.12261009 -0.29471037 228 26 28
0.049634676 -0.11694029 -0.29926229 228 26 28
0.049987577 -0.12157183 -0.29133734 228 26 28
0.044073857 -0.10991386 -0.29566917 228 26 28
0.050032221 -0.12133676 -0.28629687 228 26 28
0.045756571 -0.10846619 -0.29907033 228 26 28
0.052722119 -0.12085832 -0.29826343 228 26 28
0.042847801 -0.10762469 -0.28780794 228 26 28
0.041236062 -0.10025848 -0.29774022 228 26 28
0.041388229 -0.10487038 -0.29011813 228 26 28
0.042223979 -0.10412091 -0.28845376 228 26 28
0.043996703 -0.10615619 -0.30066758 228 26 28
0.043364529 -0.11033145 -0.27362132 228 26 28
0.050380643 -0.12261812 -0.28514615 228 26 28
0.050697137 -0.12297218 -0.27693623 228 26 28
0.047733247 -0.11866564 -0.27404237 228 26 28
0.049469568 -0.12169491 -0.28324437 228 26 28
0.041497238 -0.10789622 -0.27635464 228 26 28
0.046407558 -0.11346345 -0.28490224 228 26 28
0.043390945 -0.10835855 -0.27934483 228 26 28
0.042461544 -0.10730646 -0.28306618 228 26 28
0.060549416 -0.14310724 -0.25776592 228 26 28
0.060829528 -0.14580669 -0.2551122 228 26 28
0.066765353 -0.15337311 -0.25802797 228 26 28
0.063247539 -0.14883493 -0.26001328 228 26 28
0.064769141 -0.14944991 -0.25665832 228 26 28
0.063183196 -0.15048407 -0.25873223 228 26 28
0.060013145 -0.13936426 -0.26573792 228 26 28
0.062576316 -0.1460114 -0.25700688 228 26 28
0.055716485 -0.13453662 -0.25837004 228 26 28
0.055896644 -0.13722399 -0.25859961 228 26 28
0.050534233 -0.12349636 -0.25958517 228 26 28
0.054947916 -0.13183761 -0.25736785 228 26 28
0.056335282 -0.13694179 -0.26876932 228 26 28
0.055788666 -0.13541046 -0.26165527 228 26 28
0.057424691 -0.13817583 -0.26617092 228 26 28
0.058869112 -0.13811858 -0.26450488 228 26 28
0.046132445 -0.14634094 -0.2436253 52 68 1
0.043748692 -0.14570647 -0.24718311 228 26 28
0.049220826 -0.15219186 -0.24852955 228 26 28
0 0 0 0 0 0
0 0 0 0 0 0
0.053901859 -0.1391165 -0.24319378 52 68 1
0 0 0 0 0 0
0.050868362 -0.14552408 -0.242469 52 68 1
0 0 0 0 0 0
0 0 0 0 0 0
0.058169499 -0.14267945 -0.24187829 228 26 28
0.059452888 -0.15214345 -0.24252379 52 68 1
0.057525899 -0.14222308 -0.25078896 228 26 28
0.059424669 -0.15401688 -0.24346231 52 68 1
0.060209014 -0.14312358 -0.25203502 228 26 28
0.058579087 -0.14451672 -0.24909857 228 26 28
0.060727514 -0.1474552 -0.24739382 228 26 28
0.060573995 -0.14396575 -0.24846759 228 26 28
0.063286401 -0.15194176 -0.24440411 228 26 28
0.060020395 -0.1484922 -0.23929472 228 26 28
0.053296931 -0.13459575 -0.23891613 228 26 28
0.049793553 -0.12706459 -0.25347337 228 26 28
0.053152338 -0.13118012 -0.24520403 228 26 28
0.050293423 -0.12497283 -0.24871032 228 26 28
0.053670168 -0.13684608 -0.24061918 228 26 28
0.054730251 -0.13726708 -0.24039169 228 26 28
0.053094331 -0.13771065 -0.24184522 52 68 1
0.050462056 -0.12993479 -0.24295735 228 26 28
0.05297064 -0.13504647 -0.24131216 228 26 28
0.05167589 -0.12801792 -0.25012994 228 26 28
0.051363092 -0.12898082 -0.24373619 228 26 28
0.055504944 -0.13816147 -0.23870146 228 26 28
0.048136584 -0.12712792 -0.24340646 228 26 28
0.05180297 -0.1334126 -0.24272332 228 26 28
0.049256939 -0.12742589 -0.24900265 228 26 28
0.054379374 -0.1372133 -0.24718012 228 26 28
0.041775566 -0.13466504 -0.24296986 52 68 1
0.048927166 -0.12517445 -0.24400561 228 26 28
0.052675199 -0.13299316 -0.25116655 228 26 28
0.042732202 -0.11301285 -0.24423802 228 26 28
0.046574038 -0.12116937 -0.25487575 228 26 28
0.044644315 -0.11668116 -0.25949848 228 26 28
0.041717298 -0.11112487 -0.2469852 228 26 28
0.042747293 -0.11275248 -0.26056388 228 26 28
0.046249807 -0.11496923 -0.2672464 228 26 28
0.042026661 -0.1110291 -0.26810068 228 26 28
0.045305863 -0.11747675 -0.25887787 228 26 28
0.044450365 -0.11243288 -0.26830974 228 26 28
0.047315493 -0.12228739 -0.2426087 228 26 28
0.042087819 -0.11283584 -0.24746521 228 26 28
0.045052119 -0.11737493 -0.2585673 228 26 28
0.047035754 -0.12144428 -0.25153363 228 26 28
0 0 0 0 0 0
0 0 0 0 0 0
0 0 0 0 0 0
0 0 0 0 0 0
0 0 0 0 0 0
0 0 0 0 0 0
0 0 0 0 0 0
0 0 0 0 0 0
0 0 0 0 0 0
0 0 0 0 0 0
0 0 0 0 0 0
0 0 0 0 0 0
0.16593394 -0.080319807 -0.28810292 77 175 74
0.16506711 -0.077092662 -0.2988283 77 175 74
0.16488491 -0.076426789 -0.2951521 77 175 74
0.16579613 -0.079431988 -0.29101801 77 175 74
0.15731831 -0.061557531 -0.28967065 77 175 74
0.15928212 -0.063749924 -0.2932778 77 175 74
0.15806933 -0.061102312 -0.29968581 77 175 74
0.16169049 -0.066989824 -0.29829133 77 175 74
0.16528136 -0.074497916 -0.29962251 77 175 74
0.16036826 -0.070665814 -0.2889798 77 175 74
0.16248864 -0.072755828 -0.29788649 77 175 74
0.16090092 -0.068981402 -0.30001616 77 175 74
0.16431352 -0.076724246 -0.28343496 77 175 74
0.16359539 -0.078092165 -0.2802141 77 175 74
0.16464649 -0.079380669 -0.27481335 77 175 74
0.16023915 -0.070589662 -0.27401856 77 175 74
0.15893592 -0.070772149 -0.27164951 77 175 74
0.16353078 -0.073940679 -0.27560866 77 175 74
0 0 0 0 0 0
0 0 0 0 0 0
0 0 0 0 0 0
0 0 0 0 0 0
0 0 0 0 0 0
0 0 0 0 0 0
0 0 0 0 0 0
0 0 0 0 0 0
0 0 0 0 0 0
0 0 0 0 0 0
0 0 0 0 0 0
0 0 0 0 0 0
0.14958993 -0.046620023 -0.29111135 77 175 74
0.1483566 -0.04879538 -0.29042217 77 175 74
0.15410972 -0.05498955 -0.28758547 77 175 74
0.15109673 -0.049617738 -0.28897181 77 175 74
0.15129456 -0.053269543 -0.28932449 77 175 74
0.15179189 -0.052260906 -0.29396707 77 175 74
0.14221711 -0.034829803 -0.28963774 77 175 74
0.14454885 -0.040554319 -0.28636786 77 175 74
0.14263201 -0.036437865 -0.28683376 77 175 74
0 0 0 0 0 0
0.14491397 -0.039900396 -0.29144099 77 175 74
0.14574064 -0.040234733 -0.28787014 77 175 74
0 0 0 0 0 0
0.14277358 -0.035548635 -0.29029477 77 175 74
0 0 0 0 0 0
0.14672266 -0.043411311 -0.29281187 77 175 74
0.1406609 -0.032663193 -0.29920289 77 175 74
0.14299417 -0.037194002 -0.29558408 77 175 74
0.15103409 -0.029651674 -0.2909779 77 175 74
0.1490612 -0.047579281 -0.28252059 77 175 74
0.15078844 -0.054831363 -0.28090289 77 175 74
0.15174715 -0.055716872 -0.28051656 77 175 74
0.15348044 -0.055018146 -0.28248256 77 175 74
0.15195315 -0.058096159 -0.27359447 77 175 74
0.15394913 -0.059353326 -0.2733354 77 175 74
0.15054576 -0.051269788 -0.28282657 77 175 74
0.14314227 -0.037679978 -0.27566078 77 175 74
0.15037844 -0.030361377 -0.280238 77 175 74
0.14479262 -0.042669646 -0.27656272 77 175 74
0.14257699 -0.038511395 -0.28390145 77 175 74
0.14713283 -0.043865174 -0.28520578 77 175 74
0 0 0 0 0 0
0.14336905 -0.04026619 -0.27511621 77 175 74
0.1442813 -0.04346351 -0.27187863 77 175 74
0.1425571 -0.037420589 -0.2830058 77 175 74
0.14378189 -0.032366984 -0.28442043 77 175 74
0.15628469 -0.06619598 -0.25953969 77 175 74
0.15706907 -0.068076856 -0.2660372 77 175 74
0.15928797 -0.069136828 -0.26798582 77 175 74
0.15785052 -0.067220084 -0.26266545 77 175 74
0.15669672 -0.063948996 -0.26909915 77 175 74
0.15734497 -0.068524547 -0.25898165 77 175 74
0.15878165 -0.071798913 -0.25720876 77 175 74
0.15489118 -0.062641054 -0.26477996 77 175 74
0.1622549 -0.078665242 -0.25386825 77 175 74
0.16507941 -0.083692074 -0.24173807 77 175 74
0.16178873 -0.079757534 -0.23958814 77 175 74
0.16580477 -0.085829809 -0.24498776 77 175 74
0.16605344 -0.086581685 -0.25228506 77 175 74
0.15975976 -0.075186096 -0.24514791 77 175 74
0.15981519 -0.073507562 -0.24573641 77 175 74
0.15619615 -0.069124565 -0.24867427 77 175 74
0.15317662 -0.061477438 -0.24713141 77 175 74
0.16144133 -0.075407259 -0.25280213 77 175 74
0.15785536 -0.073078662 -0.24154437 77 175 74
0.15314287 -0.06194941 -0.24596791 77 175 74
0.15503068 -0.066389054 -0.2525264 77 175 74
0.14688323 -0.052434873 -0.25521517 77 175 74
0.14440638 -0.047469117 -0.25419739 77 175 74
0.15408698 -0.060370769 -0.2662791 77 175 74
0.15066308 -0.055789266 -0.25964785 77 175 74
0.15130195 -0.055715881 -0.25899196 77 175 74
0.15074028 -0.058061875 -0.26382628 77 175 74
0.15183523 -0.059499748 -0.26239008 77 175 74
0.15079948 -0.056921374 -0.25810814 77 175 74
0.15083717 -0.055692773 -0.2612932 77 175 74
0.15428819 -0.059978567 -0.26833805 77 175 74
0.1552414 -0.060668711 -0.26827535 77 175 74
0.14156212 -0.038397484 -0.2544221 77 175 74
0.14232975 -0.041823335 -0.2672852 77 175 74
0.13912277 -0.03547271 -0.2630448 77 175 74
0 0 0 0 0 0
0.14396635 -0.043635998 -0.25540024 77 175 74
0.14259151 -0.039457258 -0.26317224 77 175 74
0.13769209 -0.034802005 -0.26244822 77 175 74
0.14376041 -0.047553688 -0.2436098 77 175 74
0.14525725 -0.047361463 -0.24242458 77 175 74
0.14966871 -0.057702288 -0.24396734 77 175 74
0.14362855 -0.04781181 -0.24187742 77 175 74
0.14664248 -0.053490128 -0.24704304 77 175 74
0.15194042 -0.058260687 -0.24796419 77 175 74
0.13771746 -0.035529241 -0.24381001 77 175 74
0.13695945 -0.033196028 -0.25065273 77 175 74
0.13710277 -0.035412163 -0.24958597 77 175 74
0 0 0 0 0 0
0.14148641 -0.040321425 -0.2517074 77 175 74
0.14651522 -0.030220527 -0.25030991 77 175 74
0.14687712 -0.032502133 -0.2481752 77 175 74
0.1420846 -0.040852431 -0.24512993 77 175 74
0 0 0 0 0 0
0 0 0 0 0 0
0.14126231 -0.044552356 -0.24098895 77 175 74
0.056282237 -0.13968593 -0.22974001 228 26 28
0.054947134 -0.1394517 -0.23558778 228 26 28
0.047450528 -0.15251848 -0.2286998 228 26 28
0.0465056 -0.15047553 -0.22466984 228 26 28
0.049024157 -0.15322539 -0.23184863 228 26 28
0.046188679 -0.15123616 -0.22477418 228 26 28
0.056675427 -0.13903874 -0.23550887 228 26 28
0.056512058 -0.13941745 -0.23582831 52 68 1
0.059006792 -0.14595173 -0.22911996 228 26 28
0.062379282 -0.15172325 -0.22538126 228 26 28
0.058454581 -0.14253144 -0.23322348 228 26 28
0.060198419 -0.14764068 -0.22622186 228 26 28
0.05726739 -0.14028756 -0.23390812 228 26 28
0.065424785 -0.15183237 -0.23382416 52 68 1
0.06615229 -0.14092954 -0.23158866 228 26 28
0.059234995 -0.1476386 -0.23449937 228 26 28
0.055931579 -0.13847481 -0.23567784 228 26 28
0.049304768 -0.13035414 -0.22343484 228 26 28
0.052871086 -0.12755661 -0.23289129 52 68 1
0.053855956 -0.12433358 -0.23222436 52 68 1
0.048849761 -0.1279193 -0.23622249 228 26 28
0.051242474 -0.13135609 -0.2321367 228 26 28
0.053788979 -0.13484833 -0.23572287 228 26 28
0.055244092 -0.12463504 -0.23313038 52 68 1
0.055284191 -0.12692331 -0.23291622 52 68 1
0.054713465 -0.13807465 -0.22472401 228 26 28
0.05395373 -0.13723864 -0.23353092 228 26 28
0.051651947 -0.1332617 -0.23762691 228 26 28
0.052432168 -0.1334385 -0.23213072 228 26 28
0.053371422 -0.13769682 -0.23442601 228 26 28
0.047611024 -0.12365037 -0.22980957 228 26 28
0.048088409 -0.1275115 -0.23642159 228 26 28
0.053098895 -0.13605534 -0.23738688 228 26 28
0 0 0 0 0 0
0.057738196 -0.12723759 -0.23355927 228 26 28
0 0 0 0 0 0
0.056428876 -0.1469404 -0.20861037 228 26 28
0.044562519 -0.1522454 -0.20751114 228 26 28
0.043788917 -0.14935455 -0.21403691 228 26 28
0.045709305 -0.14958474 -0.22285745 228 26 28
0.044999238 -0.15149252 -0.20797022 228 26 28
0.044399578 -0.15181193 -0.21064617 228 26 28
0.055388384 -0.14205909 -0.21072219 228 26 28
0.053460915 -0.1404521 -0.21461453 228 26 28
0.054159213 -0.1419306 -0.21545158 228 26 28
0.060344003 -0.15175076 -0.22010668 228 26 28
0.063428149 -0.15417519 -0.21773763 228 26 28
0.0612932 -0.1523174 -0.2214721 228 26 28
0.058613475 -0.14903729 -0.2208872 228 26 28
0.057464592 -0.14718515 -0.2118834 228 26 28
0.062795356 -0.15443449 -0.21614447 228 26 28
0.059207797 -0.14775357 -0.2168317 228 26 28
0.060397595 -0.14915217 -0.21647578 228 26 28
0.049897559 -0.13127443 -0.22244442 228 26 28
0.053110629 -0.13706318 -0.21308435 228 26 28
0.048444543 -0.12676387 -0.21926662 228 26 28
0.048335724 -0.12730864 -0.21573959 228 26 28
0.047798853 -0.12891284 -0.20775148 228 26 28
0.072624363 -0.15287492 -0.23598704 228 26 28
0.04519695 -0.1222206 -0.22784306 228 26 28
0.042732343 -0.11441468 -0.23286782 228 26 28
0.042115733 -0.11055118 -0.23221837 52 68 1
0.049907822 -0.11394198 -0.2338528 228 26 28
0.04456161 -0.12113645 -0.22678623 228 26 28
0.0424155 -0.12008802 -0.20792195 228 26 28
0.054294154 -0.12040033 -0.23179126 228 26 28
0.041595358 -0.11774722 -0.21541996 228 26 28
0.045517046 -0.1041311 -0.2331593 228 26 28
0.041936163 -0.11721719 -0.21928146 228 26 28
0.045374185 -0.12143267 -0.22319791 228 26 28
0.052134905 -0.11778755 -0.232941 228 26 28
0.046008833 -0.10579254 -0.23151137 228 26 28
0.043469675 -0.12079339 -0.22174497 228 26 28
0.055002127 -0.14491719 -0.19555558 228 26 28
0.043706577 -0.15368487 -0.19594415 228 26 28
0.041934934 -0.15153235 -0.19490935 228 26 28
0.04358273 -0.15252069 -0.19304018 228 26 28
0.055370886 -0.14389428 -0.20185873 228 26 28
0.053427003 -0.1422005 -0.19422774 228 26 28
0.055139717 -0.14776008 -0.19319145 228 26 28
0.052905794 -0.14181961 -0.19248085 228 26 28
0.058592647 -0.15066406 -0.20092888 228 26 28
0.056941934 -0.14659002 -0.20619802 228 26 28
0.059266329 -0.15413187 -0.20016617 228 26 28
0.048808627 -0.13295482 -0.19855273 228 26 28
0.048435841 -0.13031068 -0.20254917 228 26 28
0.04344197 -0.1252472 -0.19973001 228 26 28
0.043645941 -0.12481091 -0.20720653 228 26 28
0.049769588 -0.13213584 -0.20249033 228 26 28
0.049985334 -0.1375791 -0.19339103 228 26 28
0.051056236 -0.14192094 -0.1787551 228 26 28
0.041787423 -0.15226901 -0.18739259 228 26 28
0.054802563 -0.14826697 -0.18124637 228 26 28
0.053568181 -0.14388186 -0.18094124 228 26 28
0.053635042 -0.14478222 -0.17672881 228 26 28
0.054440521 -0.14362045 -0.19005418 228 26 28
0.052812822 -0.14188181 -0.18709113 228 26 28
0.057297647 -0.1499894 -0.18811013 228 26 28
0.057812132 -0.15046385 -0.19146821 228 26 28
0.043505792 -0.12546945 -0.17877376 228 26 28
0.041319232 -0.12474064 -0.18060224 228 26 28
0.051514827 -0.13867058 -0.18964626 228 26 28
0.048258737 -0.13621584 -0.17775984 228 26 28
0.042022843 -0.1256592 -0.1861001 228 26 28
0.05000522 -0.13758323 -0.18587454 228 26 28
0.1656979 -0.094292104 -0.18851051 77 175 74
0.16573374 -0.096522599 -0.18206687 77 175 74
0.054807935 -0.076643281 -0.22866048 52 68 1
0.06223112 -0.07031136 -0.22768633 52 68 1
0 0 0 0 0 0
0.054344781 -0.079981327 -0.22933178 52 68 1
0 0 0 0 0 0
0 0 0 0 0 0
0 0 0 0 0 0
0 0 0 0 0 0
0 0 0 0 0 0
0 0 0 0 0 0
0.04274483 -0.083493151 -0.23066038 52 68 1
0 0 0 0 0 0
0 0 0 0 0 0
0 0 0 0 0 0
0.073485643 -0.069126479 -0.22709936 52 68 1
0.088120952 -0.056407023 -0.22565186 52 68 1
0.098000675 -0.05569749 -0.22457856 52 68 1
0 0 0 0 0 0
0 0 0 0 0 0
0.088656411 -0.056862824 -0.22491379 52 68 1
0 0 0 0 0 0
0.087414771 -0.055853877 -0.22451966 52 68 1
0.1626308 -0.080895945 -0.23515077 77 175 74
0.16241866 -0.079080187 -0.23745783 77 175 74
0.16321494 -0.083372116 -0.22887371 77 175 74
0.16529182 -0.088748999 -0.22399887 77 175 74
0.16060738 -0.079874448 -0.23748975 77 175 74
0.15365267 -0.068500735 -0.22991429 77 175 74
0.15849669 -0.073935091 -0.23810954 77 175 74
0.15620717 -0.071353436 -0.2379695 77 175 74
0.15562303 -0.069512159 -0.23065452 77 175 74
0.15527847 -0.068494819 -0.23269172 77 175 74
0.15347093 -0.064835377 -0.23765409 77 175 74
0.15734062 -0.074357055 -0.23847146 77 175 74
0.154456 -0.068758868 -0.23557164 77 175 74
0.15870444 -0.076210201 -0.23576383 77 175 74
0.15757841 -0.073966138 -0.23163538 77 175 74
0.15703523 -0.071285784 -0.23684263 77 175 74
0.15107177 -0.063485943 -0.23192331 77 175 74
0.15231049 -0.063691393 -0.23648113 77 175 74
0.15324561 -0.066590048 -0.22964346 77 175 74
0.15400459 -0.068570502 -0.22842839 77 175 74
0.15232706 -0.067143328 -0.22637033 77 175 74
0.16546755 -0.08647763 -0.21833839 77 175 74
0.16070843 -0.082508072 -0.21583784 77 175 74
0.16305713 -0.08621496 -0.21041852 77 175 74
0.16179328 -0.079007104 -0.21820366 77 175 74
0.16047688 -0.083997779 -0.21427773 77 175 74
0.1575277 -0.077640273 -0.21272402 77 175 74
0.15812059 -0.079319321 -0.21495929 77 175 74
0.1655034 -0.086235799 -0.21526128 77 175 74
0.16044149 -0.08224465 -0.21871805 77 175 74
0.15984075 -0.082081378 -0.21679983 77 175 74
0.16371758 -0.088761367 -0.21938001 77 175 74
0.14918233 -0.062288862 -0.21145135 77 175 74
0.15014593 -0.06441424 -0.21257676 77 175 74
0.14937793 -0.061203092 -0.20781058 77 175 74
0.15299089 -0.066554844 -0.22173059 77 175 74
0.15834863 -0.075396292 -0.21738854 77 175 74
0.15157789 -0.062764093 -0.21960448 77 175 74
0.15640905 -0.075017281 -0.20792645 77 175 74
0.15426405 -0.06079692 -0.2148827 52 68 1
0.15526359 -0.07060454 -0.21813251 77 175 74
0.16475557 -0.074668668 -0.21552184 52 68 1
0.15529615 -0.072679169 -0.22156085 77 175 74
0.15226305 -0.065259069 -0.21796024 77 175 74
0.15099631 -0.064364605 -0.20967013 77 175 74
0.15878451 -0.073359884 -0.21811889 52 68 1
0 0 0 0 0 0
0 0 0 0 0 0
0.11254486 -0.046354394 -0.22267498 52 68 1
0 0 0 0 0 0
0.13443941 -0.033733688 -0.21361297 77 175 74
0 0 0 0 0 0
0.12169939 -0.042254787 -0.22256701 52 68 1
0.13219705 -0.031578586 -0.21094488 77 175 74
0.13486074 -0.035624951 -0.20924634 77 175 74
0.13357642 -0.031009506 -0.22731251 77 175 74
0.13432819 -0.032722585 -0.21683493 77 175 74
0.11472715 -0.040408999 -0.22236818 52 68 1
0.1221042 -0.03697212 -0.22131886 52 68 1
0 0 0 0 0 0
0.11500948 -0.042672552 -0.22269107 52 68 1
0 0 0 0 0 0
0 0 0 0 0 0
0.13417774 -0.035503682 -0.21238187 77 175 74
0 0 0 0 0 0
0.13240102 -0.031129118 -0.21245605 77 175 74
0.13433468 -0.032808926 -0.23413646 77 175 74
0.14177184 -0.046551112 -0.22866373 77 175 74
0.14879987 -0.05788666 -0.2230591 77 175 74
0.14686087 -0.052413516 -0.23762138 77 175 74
0.1452001 -0.048856389 -0.23799124 77 175 74
0.14770055 -0.055962775 -0.23201095 77 175 74
0.15117829 -0.059167959 -0.23575519 77 175 74
0.15153994 -0.060662266 -0.23545325 77 175 74
0.14525104 -0.031809404 -0.22807439 77 175 74
0.14005676 -0.039461408 -0.23632233 77 175 74
0.13978189 -0.036547989 -0.22740228 77 175 74
0.14673927 -0.033261817 -0.23596883 77 175 74
0.14298858 -0.044166144 -0.23676942 77 175 74
0.13840665 -0.041966517 -0.22713035 77 175 74
0.13635503 -0.036207017 -0.22974463 77 175 74
0 0 0 0 0 0
0 0 0 0 0 0
0.13917305 -0.040300883 -0.22475474 77 175 74
0.13758141 -0.036845945 -0.22721052 77 175 74
0 0 0 0 0 0
0.13695723 -0.037294969 -0.2297246 77 175 74
0.14547339 -0.032034758 -0.22918813 77 175 74
0.1372747 -0.036380459 -0.23014866 77 175 74
0.1416001 -0.049159106 -0.22124329 77 175 74
0.14047235 -0.046767302 -0.2161956 77 175 74
0.1421396 -0.048764337 -0.21386403 77 175 74
0.14357387 -0.051655483 -0.21596979 77 175 74
0.14777346 -0.060511108 -0.21633461 77 175 74
0.1581171 -0.056945808 -0.21348247 77 175 74
0.15911978 -0.060610745 -0.21408296 77 175 74
0.15104793 -0.045969345 -0.21578012 77 175 74
0.15883873 -0.057614844 -0.21775697 52 68 1
0.1520604 -0.045949586 -0.2157214 77 175 74
0.15398134 -0.049607471 -0.21469295 77 175 74
0.13910121 -0.040350039 -0.22132161 77 175 74
0.14456196 -0.034144178 -0.20991908 77 175 74
0.14813165 -0.044744719 -0.21375981 52 68 1
0.13877267 -0.043126505 -0.21916908 77 175 74
0.14148907 -0.030059503 -0.2130215 52 68 1
0.14498226 -0.031852059 -0.21787183 77 175 74
0.14323892 -0.032405987 -0.21172781 77 175 74
0.14490089 -0.032161571 -0.22240405 77 175 74
0.13761537 -0.037005745 -0.22168405 77 175 74
0.1398187 -0.039120853 -0.21371478 77 175 74
0.13856035 -0.040621247 -0.21930608 77 175 74
0.13741168 -0.036454111 -0.2149989 77 175 74
0.14244357 -0.037925456 -0.21380046 52 68 1
0 0 0 0 0 0
0 0 0 0 0 0
0.14784253 -0.062083293 -0.19571289 77 175 74
0.14617996 -0.062536597 -0.17899346 77 175 74
0.1507708 -0.071876705 -0.17643355 77 175 74
0.15727864 -0.078700066 -0.19958343 77 175 74
0.15297462 -0.075371258 -0.18199436 77 175 74
0.16294874 -0.091260158 -0.19090474 77 175 74
0.15079135 -0.067846946 -0.20540093 77 175 74
0.16137241 -0.086379945 -0.20332351 77 175 74
0.14659239 -0.061013523 -0.19824301 77 175 74
0.15598938 -0.078581654 -0.18161255 77 175 74
0.1486551 -0.06236814 -0.20542409 77 175 74
0.15915167 -0.083122008 -0.20250019 77 175 74
0.15116571 -0.071088344 -0.19227163 77 175 74
0.13155518 -0.030159177 -0.19964603 77 175 74
0.12926726 -0.02978747 -0.2029992 77 175 74
0.12876694 -0.030873066 -0.1919217 77 175 74
0.13336518 -0.037319299 -0.18202746 77 175 74
0.13184929 -0.034933686 -0.17714141 77 175 74
0.12909865 -0.030481419 -0.17747022 77 175 74
0.1328692 -0.034356911 -0.18763755 77 175 74
0.13341859 -0.036268577 -0.19311216 77 175 74
0.13402729 -0.036018215 -0.19075538 77 175 74
0.1288332 -0.031231947 -0.18460952 77 175 74
0.13199739 -0.035347022 -0.18515448 77 175 74
0.13004103 -0.029861733 -0.19734332 77 175 74
0.13157952 -0.034060545 -0.18391337 77 175 74
0.14642742 -0.058459751 -0.19265342 77 175 74
0.14101326 -0.048667241 -0.20524502 77 175 74
0.14214472 -0.051029466 -0.19328319 77 175 74
0.14420141 -0.053410951 -0.20659608 77 175 74
0 0 0 0 0 0
0.14519081 -0.036490511 -0.20585154 77 175 74
0.14481376 -0.037795838 -0.19430801 77 175 74
0.13576332 -0.03907289 -0.20649534 77 175 74
0.13927938 -0.039472248 -0.2009711 77 175 74
0.13680513 -0.043177221 -0.19818854 77 175 74
0.13795586 -0.039127402 -0.1957085 77 175 74
0.14109267 -0.052097958 -0.19042356 77 175 74
0.13856165 -0.048229776 -0.1890635 77 175 74
0.13571908 -0.045463953 -0.18003237 77 175 74
0.14035811 -0.049372405 -0.18337359 77 175 74
0.14022553 -0.053384922 -0.17795531 77 175 74
0.13673867 -0.045690153 -0.18702093 77 175 74
0.14044757 -0.050668847 -0.17762379 77 175 74
0.13908756 -0.046752043 -0.1910122 77 175 74
0.13494231 -0.04165376 -0.1800428 77 175 74
0.13492104 -0.04080423 -0.18203239 77 175 74
0.13697338 -0.039423387 -0.19026285 77 175 74
0 0 0 0 0 0
0.13785 -0.040478986 -0.18857336 77 175 74
0 0 0 0 0 0
0.14407334 -0.037645072 -0.17784218 77 175 74
0.14292249 -0.036138605 -0.17701174 77 175 74
0.14372662 -0.038294096 -0.18098833 77 175 74
0.13729981 -0.041344281 -0.17679062 77 175 74
0.19357499 -0.13147283 -0.27041847 77 175 74
0.19485095 -0.12931347 -0.28786933 77 175 74
0.19464104 -0.12938705 -0.2909745 77 175 74
0.19530815 -0.1350702 -0.28064972 77 175 74
0.19178495 -0.12650119 -0.27676213 77 175 74
0.19355027 -0.13033809 -0.27330539 77 175 74
0.19212942 -0.12505767 -0.28621528 77 175 74
0.19240308 -0.12626579 -0.29020253 77 175 74
0.19205067 -0.1244639 -0.28844288 77 175 74
0.19625078 -0.13218386 -0.28874007 77 175 74
0.19713713 -0.13151899 -0.29712382 77 175 74
0 0 0 0 0 0
0.19411351 -0.13400057 -0.27466008 77 175 74
0.19524719 -0.13202375 -0.27837977 77 175 74
0 0 0 0 0 0
0.19139962 -0.12401374 -0.29932332 77 175 74
0.19542576 -0.13667467 -0.26989666 77 175 74
0.19386277 -0.1288569 -0.29853177 77 175 74
0.20513664 -0.13926765 -0.29426575 255 127 0
0.19987854 -0.1391564 -0.28800312 77 175 74
0.1999718 -0.13928545 -0.28553012 77 175 74
0.20427118 -0.1390281 -0.29140511 255 127 0
0.19941923 -0.13909489 -0.28542221 77 175 74
0.20528841 -0.13893317 -0.29040578 255 127 0
0.2065827 -0.13809294 -0.28820699 255 127 0
0.20457941 -0.13875671 -0.29435956 255 127 0
0.21057373 -0.13791516 -0.29198015 77 175 74
0.20797977 -0.13707758 -0.29541957 255 127 0
0.20025352 -0.13879986 -0.29556102 77 175 74
0.19773117 -0.13354535 -0.29280818 77 175 74
0.19851553 -0.13446645 -0.29968381 77 175 74
0.21106187 -0.13773584 -0.29446375 255 127 0
0.19796704 -0.13230091 -0.3008053 77 175 74
0.20994875 -0.1394352 -0.27220759 77 175 74
0.20440415 -0.1444633 -0.28285486 255 127 0
0.20214787 -0.13951179 -0.27946201 77 175 74
0.20469387 -0.1403192 -0.27901745 255 127 0
0.20072256 -0.14845408 -0.28313306 255 127 0
0.20316358 -0.14012505 -0.28073242 255 127 0
0 0 0 0 0 0
0.20426595 -0.13990331 -0.27136731 255 127 0
0.20767733 -0.13662106 -0.2778469 77 175 74
0.20685685 -0.13814381 -0.27712694 255 127 0
0.20831947 -0.13612469 -0.27556831 77 175 74
0.18101467 -0.1085215 -0.28559375 77 175 74
0.18741554 -0.11612593 -0.30056116 77 175 74
0.18759795 -0.11930545 -0.29152626 77 175 74
0.18788284 -0.116947 -0.29979739 77 175 74
0.18433435 -0.10858817 -0.29841441 77 175 74
0.18508832 -0.11334858 -0.296121 77 175 74
0.18465269 -0.1121681 -0.29893076 77 175 74
0.18443397 -0.11237454 -0.29819384 77 175 74
0.19278674 -0.12225974 -0.30043009 77 175 74
0.1766036 -0.095147543 -0.29636192 77 175 74
0.17947629 -0.10202586 -0.29621181 77 175 74
0.17958121 -0.1015525 -0.30031607 77 175 74
0.17709589 -0.097206533 -0.30042559 77 175 74
0.17659661 -0.095312372 -0.29206726 77 175 74
0.19059388 -0.12211175 -0.28168961 77 175 74
0.18682349 -0.12013295 -0.27903989 77 175 74
0.18488221 -0.11562458 -0.28328276 77 175 74
0.1880172 -0.11877611 -0.27552471 77 175 74
0.18707024 -0.11565805 -0.2822623 77 175 74
0.17983526 -0.10631167 -0.27856261 77 175 74
0.17727709 -0.10108425 -0.28476331 77 175 74
0.17757556 -0.099534325 -0.28261039 77 175 74
0.17774928 -0.10455597 -0.27417743 77 175 74
0.1716494 -0.092042543 -0.28233227 77 175 74
0.17515147 -0.097741038 -0.27436098 77 175 74
0.17304456 -0.092738688 -0.28166863 77 175 74
0.18065755 -0.10644456 -0.27359673 77 175 74
0.17489626 -0.096125804 -0.27259722 77 175 74
0.17758033 -0.10019236 -0.27835947 77 175 74
0.17935511 -0.10464897 -0.28039435 77 175 74
0.1794695 -0.10178373 -0.27986044 77 175 74
0.17917566 -0.10139245 -0.28191859 77 175 74
0.17171748 -0.09265767 -0.27957782 77 175 74
0.19371788 -0.13578491 -0.25533456 77 175 74
0.19474329 -0.13598135 -0.25215381 77 175 74
0.18825844 -0.12623845 -0.24091245 77 175 74
0 0 0 0 0 0
0.19640896 -0.14218211 -0.2395293 77 175 74
0.18904768 -0.12558928 -0.26501527 77 175 74
0.18884017 -0.12631699 -0.24361548 77 175 74
0.19145456 -0.12820996 -0.26310849 77 175 74
0.19534959 -0.13820562 -0.24882676 77 175 74
0.190925 -0.13260259 -0.24904358 77 175 74
0.19625649 -0.13751057 -0.25798866 77 175 74
0.19087607 -0.13015626 -0.25763431 77 175 74
0.18795969 -0.12462679 -0.25782892 77 175 74
0.1912495 -0.13393731 -0.2438754 77 175 74
0.18915527 -0.12378655 -0.25692096 77 175 74
0 0 0 0 0 0
0.2050764 -0.1400647 -0.26316506 255 127 0
0.20422392 -0.14140235 -0.24525541 255 127 0
0.20907882 -0.1395983 -0.26367158 77 175 74
0.1983428 -0.14115751 -0.26485083 77 175 74
0 0 0 0 0 0
0.20348555 -0.14159881 -0.26810279 255 127 0
0.20636751 -0.14066117 -0.24337481 255 127 0
0.20109007 -0.14613608 -0.24020039 77 175 74
0.20265453 -0.14336909 -0.2395169 255 127 0
0.19809105 -0.14248776 -0.25531232 77 175 74
0 0 0 0 0 0
0.18086685 -0.11156602 -0.26479927 77 175 74
0.17929088 -0.10840644 -0.26770031 77 175 74
0.18480355 -0.11490166 -0.26437345 77 175 74
0.18649068 -0.12090092 -0.26867226 77 175 74
0.18404818 -0.1139405 -0.26620302 77 175 74
0.18435219 -0.11264984 -0.26941621 77 175 74
0.18244149 -0.11508446 -0.25943571 77 175 74
0.18457352 -0.11886515 -0.26261705 77 175 74
0.17506078 -0.099941313 -0.26319879 77 175 74
0.17624816 -0.099914268 -0.26315257 77 175 74
0.17631583 -0.10218086 -0.2690241 77 175 74
0.17191423 -0.096066497 -0.25628933 77 175 74
0.17332767 -0.098830886 -0.26022848 77 175 74
0.17199758 -0.093109384 -0.26625651 77 175 74
0.18156303 -0.11565204 -0.24847484 77 175 74
0.18097861 -0.1104211 -0.2524851 77 175 74
0.17838927 -0.11021462 -0.24329799 77 175 74
0.17899251 -0.1093008 -0.24510923 77 175 74
0.18022074 -0.11028618 -0.24393821 77 175 74
0.1787174 -0.11200484 -0.24195434 77 175 74
0.18447089 -0.11763351 -0.2483359 77 175 74
0.18673524 -0.12254842 -0.25273156 77 175 74
0.18382429 -0.11874717 -0.2455323 77 175 74
0.18571968 -0.11767358 -0.2534216 77 175 74
0.18593122 -0.11950269 -0.2491796 77 175 74
0.17417641 -0.099601455 -0.24460207 77 175 74
0.17388636 -0.10028071 -0.24817315 77 175 74
0.17696372 -0.10690015 -0.24421813 77 175 74
0.17037183 -0.091772273 -0.24599968 77 175 74
0.16828984 -0.090167567 -0.24752051 77 175 74
0.16939676 -0.08033938 -0.29608575 77 175 74
0.16679533 -0.088783666 -0.24439508 77 175 74
0.16620907 -0.087803707 -0.24405438 77 175 74
0.16726975 -0.079709515 -0.28994066 77 175 74
0.16845797 -0.08215221 -0.28192681 77 175 74
0.16730529 -0.087362729 -0.25328809 77 175 74
0.16640589 -0.086707063 -0.24926046 77 175 74
0.1671342 -0.083519883 -0.27446821 77 175 74
0.16724466 -0.080998272 -0.28288382 77 175 74
0.16800427 -0.083630234 -0.26801011 77 175 74
0.17308305 -0.091542542 -0.28779203 77 175 74
0.16941574 -0.089036331 -0.25676835 77 175 74
0.16823132 -0.078773022 -0.300228 77 175 74
0.1663612 -0.083132103 -0.25848138 77 175 74
0.16711463 -0.083502673 -0.26862478 77 175 74
0.1689862 -0.084222339 -0.28538895 77 175 74
0.18086754 -0.15147418 -0.22894 52 68 1
0.17643765 -0.15268596 -0.22965759 52 68 1
0.18141431 -0.15201338 -0.2261263 52 68 1
0.17331751 -0.14855607 -0.23033722 255 127 0
0.17134574 -0.14903903 -0.2269102 255 127 0
0 0 0 0 0 0
0.19597095 -0.14506447 -0.22792767 77 175 74
0.19127621 -0.14551531 -0.22799984 52 68 1
0.19673479 -0.14219478 -0.2361062 77 175 74
0.18863244 -0.14151937 -0.22752339 52 68 1
0.1960596 -0.14276187 -0.22340424 77 175 74
0.19302899 -0.14515944 -0.22602819 255 127 0
0.19624312 -0.14001955 -0.23214975 77 175 74
0.19505851 -0.14077567 -0.22867711 77 175 74
0.19314323 -0.13941155 -0.23161353 77 175 74
0.19718181 -0.14107107 -0.23732615 77 175 74
0.19148017 -0.13260654 -0.2310338 77 175 74
0.18876991 -0.12853841 -0.22570214 77 175 74
0.18402559 -0.12402641 -0.22596177 77 175 74
0.19249593 -0.13673681 -0.22660419 255 127 0
0.18929119 -0.12902948 -0.23803818 77 175 74
0.19240454 -0.135985 -0.22592752 77 175 74
0.19357218 -0.13745452 -0.22387967 77 175 74
0.19256213 -0.134278 -0.22632541 77 175 74
0.19336723 -0.1374874 -0.22881259 77 175 74
0.19082238 -0.13337834 -0.23038961 77 175 74
0.19142082 -0.13292071 -0.22941712 77 175 74
0.19107488 -0.13194044 -0.23568982 77 175 74
0.19334982 -0.13731498 -0.22618245 77 175 74
0.19610274 -0.14288074 -0.22273734 77 175 74
0.19501895 -0.14508416 -0.21017383 77 175 74
0.19292501 -0.14223729 -0.21382219 77 175 74
0.19488029 -0.14211731 -0.221183 77 175 74
0.19311021 -0.14238529 -0.21592632 77 175 74
0.19448102 -0.13891402 -0.21834585 77 175 74
0.19204524 -0.14060013 -0.21308596 77 175 74
0.18495488 -0.12388737 -0.22270705 77 175 74
0.18877338 -0.12707251 -0.21645173 52 68 1
0.19143662 -0.12917227 -0.22006889 77 175 74
0.18708217 -0.12382104 -0.2187883 77 175 74
0.19336575 -0.13643575 -0.22146109 77 175 74
0.19389488 -0.12909691 -0.21938987 52 68 1
0.19183747 -0.12974033 -0.22004269 52 68 1
0.1966687 -0.12744212 -0.2173716 77 175 74
0.18704003 -0.12872501 -0.20908707 77 175 74
0.18938079 -0.13363658 -0.22057748 77 175 74
0.18399844 -0.12388596 -0.21843432 77 175 74
0.18436086 -0.12643382 -0.21641077 77 175 74
0.19614507 -0.13521558 -0.2199928 52 68 1
0.19349273 -0.13832638 -0.21558625 77 175 74
0.18388778 -0.12349559 -0.21549626 77 175 74
0.19233231 -0.13427356 -0.22170551 77 175 74
0.19853954 -0.14436673 -0.23301136 77 175 74
0 0 0 0 0 0
0.20183903 -0.14433207 -0.22743112 255 127 0
0.20042649 -0.1461332 -0.22622019 77 175 74
0.19971049 -0.14777417 -0.23238759 77 175 74
0.20744953 -0.14308192 -0.23186322 77 175 74
0.19937247 -0.14732358 -0.2260222 77 175 74
0.20090395 -0.14456148 -0.22312206 255 127 0
0.19929217 -0.14657594 -0.23033381 77 175 74
0.2060539 -0.14107737 -0.23073767 77 175 74
0.20564477 -0.14178973 -0.2272419 255 127 0
0.20719336 -0.14290591 -0.22820635 77 175 74
0.1990485 -0.14433412 -0.22855733 77 175 74
0.20454408 -0.14187126 -0.23417519 255 127 0
0.20468962 -0.14067678 -0.21211217 255 127 0
0.20345528 -0.14324942 -0.21407866 255 127 0
0.19828045 -0.14353685 -0.22049493 255 127 0
0.20941974 -0.13586763 -0.22005118 255 127 0
0.21127801 -0.13469206 -0.21649046 255 127 0
0.20288523 -0.13816392 -0.22007094 52 68 1
0.19958787 -0.13135406 -0.21678509 77 175 74
0.22772007 -0.13066469 -0.2170029 52 68 1
0.22318992 -0.13101277 -0.21834014 52 68 1
0.21820359 -0.1318641 -0.2172325 255 127 0
0.22568056 -0.12996589 -0.21769714 52 68 1
0.22807762 -0.12524895 -0.21917462 255 127 0
0.22183554 -0.13237128 -0.21741802 52 68 1
0.17849739 -0.11204465 -0.22941889 77 175 74
0.18101941 -0.11770251 -0.22392429 77 175 74
0.17987265 -0.11124406 -0.23750831 77 175 74
0.18156475 -0.11503534 -0.23833233 77 175 74
0.17862953 -0.111263 -0.2261195 77 175 74
0.17822042 -0.10903917 -0.23482929 77 175 74
0.18519537 -0.12127573 -0.236968 77 175 74
0.1823466 -0.1163858 -0.23324601 77 175 74
0.18312776 -0.12039884 -0.23175111 77 175 74
0.16896105 -0.097681411 -0.22404172 77 175 74
0.17570955 -0.10445741 -0.23732631 77 175 74
0.16847295 -0.092543587 -0.22632481 77 175 74
0.17313193 -0.10019165 -0.23010448 77 175 74
0.17238089 -0.10174806 -0.23406997 77 175 74
0.1741426 -0.10109597 -0.2347687 77 175 74
0.1711598 -0.098699197 -0.22823671 77 175 74
0.17359237 -0.10362888 -0.23796061 77 175 74
0.17310356 -0.10393068 -0.23153612 77 175 74
0.17827274 -0.11364806 -0.21388702 77 175 74
0.17588098 -0.10989712 -0.20906991 77 175 74
0.17893961 -0.11545137 -0.20764469 77 175 74
0.1808154 -0.11800141 -0.21776165 77 175 74
0.17700756 -0.1098399 -0.21066329 77 175 74
0.17866993 -0.11576502 -0.21634732 77 175 74
0.17949362 -0.10945212 -0.21880433 77 175 74
0.17676449 -0.11352755 -0.21017943 77 175 74
0.17525999 -0.10888994 -0.21997277 77 175 74
0.18053375 -0.11272153 -0.21648589 52 68 1
0.1795247 -0.11704133 -0.22256783 77 175 74
0 0 0 0 0 0
0.18410656 -0.11716446 -0.21705848 77 175 74
0 0 0 0 0 0
0.19437298 -0.12050057 -0.2183107 77 175 74
0.18946801 -0.11239073 -0.21656612 77 175 74
0.17213361 -0.10359518 -0.2211915 77 175 74
0.17501096 -0.10740158 -0.20930436 77 175 74
0.17252658 -0.10475817 -0.21936037 77 175 74
0.16693556 -0.093006894 -0.218575 77 175 74
0.16962506 -0.094348945 -0.21514614 77 175 74
0.17354043 -0.1029457 -0.2146778 77 175 74
0.1688356 -0.094764642 -0.21671738 77 175 74
0.17961967 -0.10626869 -0.21795167 52 68 1
0.17679451 -0.093027033 -0.21740395 52 68 1
0.17667724 -0.09413074 -0.217168 52 68 1
0.16714068 -0.095178522 -0.21224265 77 175 74
0.16751124 -0.096337259 -0.20918497 77 175 74
0.17632407 -0.099955596 -0.21837471 52 68 1
0.17204154 -0.096357569 -0.21662177 77 175 74
0.18405353 -0.10393211 -0.2181783 77 175 74
0.1912286 -0.13918424 -0.20184804 77 175 74
0.19324186 -0.14214996 -0.19726056 77 175 74
0.19680178 -0.14658585 -0.19238333 77 175 74
0.19449933 -0.1464444 -0.20358613 77 175 74
0.1923313 -0.14473444 -0.19309759 77 175 74
0.18154292 -0.12454533 -0.19627671 77 175 74
0.19072077 -0.13492967 -0.20659155 77 175 74
0.18635523 -0.12950025 -0.1974487 77 175 74
0.18542187 -0.1317461 -0.19366337 77 175 74
0.18710059 -0.13189454 -0.19483991 77 175 74
0.18954864 -0.13711543 -0.19257621 77 175 74
0.18732141 -0.13374321 -0.19519393 77 175 74
0.19440162 -0.14749028 -0.18260531 77 175 74
0.1932411 -0.14349651 -0.18959147 77 175 74
0.19228339 -0.14601882 -0.18039565 77 175 74
0.19399247 -0.14418094 -0.19146237 77 175 74
0.19399387 -0.14866084 -0.18651931 77 175 74
0.19285162 -0.14571346 -0.17667156 77 175 74
0.18451977 -0.13180579 -0.18294148 77 175 74
0.18349588 -0.12874113 -0.1882457 77 175 74
0.184892 -0.12885551 -0.18976033 77 175 74
0.18691561 -0.13497376 -0.18085207 77 175 74
0.18566656 -0.13400288 -0.18725421 77 175 74
0.18377616 -0.12790021 -0.19088858 77 175 74
0.18397193 -0.13042648 -0.18440817 77 175 74
0.18432708 -0.13282467 -0.17777519 77 175 74
0.18910936 -0.13808028 -0.18703829 77 175 74
0 0 0 0 0 0
0.20213667 -0.1457071 -0.18915154 255 127 0
0.20324178 -0.14499013 -0.18658546 77 175 74
0.19893312 -0.14790273 -0.18915921 255 127 0
0.204944 -0.14775355 -0.17616168 255 127 0
0.20613413 -0.1444751 -0.19930343 77 175 74
0.20147815 -0.15290219 -0.2004654 255 127 0
0.1976351 -0.14886412 -0.1890845 77 175 74
0.1986459 -0.1531325 -0.20076483 52 68 1
0.20255257 -0.14586847 -0.20153892 255 127 0
0.19839227 -0.14774285 -0.18715729 255 127 0
0.20545897 -0.14553216 -0.19297045 77 175 74
0.20573948 -0.14503987 -0.19149143 77 175 74
0.17582472 -0.11235289 -0.19459528 77 175 74
0.17483683 -0.11087203 -0.20435447 77 175 74
0.18172081 -0.12211789 -0.20249304 77 175 74
0.17813042 -0.11456215 -0.19749795 77 175 74
0.18295443 -0.12230876 -0.2019244 77 175 74
0.16987017 -0.10015012 -0.20210747 77 175 74
0.17217679 -0.10544451 -0.19577044 77 175 74
0.17380436 -0.10659242 -0.19549273 77 175 74
0.17240953 -0.10568463 -0.19217503 77 175 74
0.1691639 -0.098099858 -0.2005956 77 175 74
0.17416431 -0.11102624 -0.18120937 77 175 74
0.17473917 -0.11336716 -0.17897317 77 175 74
0.17388552 -0.10943634 -0.18738185 77 175 74
0.17516392 -0.1164065 -0.17827943 77 175 74
0.17625494 -0.11817393 -0.18180855 77 175 74
0.17445672 -0.10883459 -0.19026753 77 175 74
0.17970759 -0.12094416 -0.18948606 77 175 74
0.17283492 -0.11137282 -0.177707 77 175 74
0.17013456 -0.10500469 -0.18454894 77 175 74
0.16818929 -0.10056984 -0.19046736 77 175 74
0.17093144 -0.10368952 -0.19126412 77 175 74
0.17053694 -0.10243484 -0.19008946 77 175 74
0.16791235 -0.098856024 -0.18705837 77 175 74
0.24548639 -0.12468377 -0.21711449 255 127 0
0.2455883 -0.12424188 -0.21597032 255 127 0
0.23482819 -0.1288875 -0.21645108 52 68 1
0.24757813 -0.12413386 -0.21430531 255 127 0
0.23152062 -0.1318105 -0.2166658 255 127 0
0.24639094 -0.12427022 -0.21552509 255 127 0
0.25919285 -0.10802441 -0.21425746 255 127 0
0.25915742 -0.11579212 -0.21507248 52 68 1
0.23694313 -0.12110035 -0.21867764 255 127 0
0.25184104 -0.1125723 -0.21501516 255 127 0
0.23461452 -0.12259468 -0.21873635 255 127 0
0.25699925 -0.1102294 -0.21316993 255 127 0
0.25223964 -0.12121045 -0.21332419 52 68 1
0.25467381 -0.11623502 -0.21484318 52 68 1
0 0 0 0 0 0
0.2395224 -0.12083159 -0.21668121 52 68 1
0.25240773 -0.11864479 -0.2157672 52 68 1
0.25147992 -0.11981257 -0.21586858 52 68 1
0.25521603 -0.11013182 -0.21319339 255 127 0
0.27697816 -0.098175362 -0.21404168 255 127 0
0.28566045 -0.097055346 -0.21222301 52 68 1
0.26512617 -0.11294331 -0.21528706 255 127 0
0.26918021 -0.1114805 -0.21200754 255 127 0
0.2831766 -0.10357065 -0.21487576 52 68 1
0.27396932 -0.10819861 -0.21157774 255 127 0
0.26963508 -0.10538188 -0.21364701 52 68 1
0.28296891 -0.09585727 -0.20979798 255 127 0
0.27293456 -0.10864735 -0.21258527 255 127 0
0.26276705 -0.11124834 -0.21417639 52 68 1
0.26710221 -0.11153066 -0.21466409 52 68 1
0.26053104 -0.11622363 -0.21662001 52 68 1
0.26953778 -0.10738968 -0.21365009 52 68 1
0.28964546 -0.10083159 -0.21275166 255 127 0
0 0 0 0 0 0
0.17280883 -0.083152264 -0.21730195 77 175 74
0.16919357 -0.087336846 -0.21718051 52 68 1
0.17501658 -0.087525606 -0.21560201 77 175 74
0 0 0 0 0 0
0.16642816 -0.091606118 -0.21443239 77 175 74
0.16648668 -0.078707553 -0.21595356 52 68 1
0.17723024 -0.090715654 -0.21833564 77 175 74
0 0 0 0 0 0
0 0 0 0 0 0
0 0 0 0 0 0
0 0 0 0 0 0
0 0 0 0 0 0
0 0 0 0 0 0
0 0 0 0 0 0
0 0 0 0 0 0
0 0 0 0 0 0
0 0 0 0 0 0
0 0 0 0 0 0
0 0 0 0 0 0
0 0 0 0 0 0
0 0 0 0 0 0
0 0 0 0 0 0
0 0 0 0 0 0
0.10323036 0.031590786 -0.27813417 77 175 74
0 0 0 0 0 0
0 0 0 0 0 0
0 0 0 0 0 0
0 0 0 0 0 0
0 0 0 0 0 0
0 0 0 0 0 0
0.10314132 0.032234453 -0.27126917 77 175 74
0.10249849 0.027417228 -0.25428438 77 175 74
0.10027204 0.031869367 -0.23996767 77 175 74
0.10035734 0.031880844 -0.25577751 77 175 74
0.10298955 0.024735235 -0.24161144 77 175 74
0.1028263 0.029598089 -0.25628519 77 175 74
0 0 0 0 0 0
0 0 0 0 0 0
0 0 0 0 0 0
0.13030152 -0.016235627 -0.29305553 77 175 74
0.13334961 -0.022924103 -0.28606597 77 175 74
0.13450313 -0.022186372 -0.2996771 77 175 74
0.13149078 -0.019305766 -0.28669727 77 175 74
0 0 0 0 0 0
0.12878631 -0.013225356 -0.291246 77 175 74
0.12911193 -0.011707948 -0.30088732 77 175 74
0.12389488 -0.0028182515 -0.29286438 77 175 74
0.12525249 -0.0062787859 -0.29667601 77 175 74
0.12699825 -0.0057081822 -0.29234898 77 175 74
0.12526022 -0.0061890665 -0.29365918 77 175 74
0.13475831 -0.023885997 -0.2763772 77 175 74
0.13032073 -0.018654177 -0.27378592 77 175 74
0.13165522 -0.021746134 -0.26979357 77 175 74
0.13125691 -0.017356241 -0.27458537 77 175 74
0.13457996 -0.025069833 -0.28099716 77 175 74
0.11929915 0.00028381977 -0.2715784 77 175 74
0.12581354 -0.0089701843 -0.27254701 77 175 74
0.12548918 -0.0049296068 -0.28287792 77 175 74
0.12489799 -0.0065138415 -0.27451721 77 175 74
0.12447212 -0.0061981082 -0.27303657 77 175 74
0.12566844 -0.0086627733 -0.27155697 77 175 74
0.12528075 -0.0056034443 -0.27772346 77 175 74
0.14817016 -0.027408265 -0.27975893 77 175 74
0.15087889 -0.029318402 -0.29202989 77 175 74
0.13582805 -0.022358913 -0.29258668 77 175 74
0.13669197 -0.028259467 -0.27017698 77 175 74
0.13815907 -0.028989915 -0.2889218 77 175 74
0 0 0 0 0 0
0 0 0 0 0 0
0 0 0 0 0 0
0.11446307 0.01706956 -0.29225376 77 175 74
0.11913966 0.0041647223 -0.29225314 77 175 74
0.11585493 0.010810309 -0.2878845 77 175 74
0.11724792 0.011334425 -0.29951295 77 175 74
0.11691179 0.011076068 -0.2884233 77 175 74
0 0 0 0 0 0
0.11871313 0.0087140743 -0.29190412 77 175 74
0.1197658 0.0055183847 -0.29521644 77 175 74
0.12132662 0.0051350654 -0.29560965 77 175 74
0.11932074 0.0066231177 -0.29411626 77 175 74
0.11939659 0.0077066622 -0.29304448 77 175 74
0.12174498 0.0025541969 -0.28667244 77 175 74
0.1207592 0.0077512311 -0.2995128 77 175 74
0.11199539 0.017629433 -0.29112056 77 175 74
0.10630383 0.028630333 -0.28659371 77 175 74
0.11134335 0.021882081 -0.2979399 77 175 74
0.11139094 0.019058751 -0.29683861 77 175 74
0.11171093 0.021260625 -0.29099375 77 175 74
