ply
format ascii 1.0
comment PCL generated
element vertex 1088
property float x
property float y
property float z
property uchar red
property uchar green
property uchar blue
element camera 0
property float view_px
property float view_py
property float view_pz
property float x_axisx
property float x_axisy
property float x_axisz
property float y_axisx
property float y_axisy
property float y_axisz
property float z_axisx
property float z_axisy
property float z_axisz
property float focal
property float scalex
property float scaley
property float centerx
property float centery
property int viewportx
property int viewporty
property float k1
property float k2
end_header
0 0 0 0 0 0
0 0 0 0 0 0
0 0 0 0 0 0
0.0085198022 -0.37599885 -0.2994054 166 86 40
0.013875152 -0.38866198 -0.30377233 166 86 40
0.010369695 -0.38158643 -0.30301419 166 86 40
0.0018492768 -0.36344612 -0.29331216 166 86 40
0 0 0 0 0 0
0 0 0 0 0 0
-0.0035315712 -0.36246011 -0.30281973 166 86 40
0 0 0 0 0 0
0 0 0 0 0 0
0 0 0 0 0 0
0 0 0 0 0 0
0.013691766 -0.36170885 -0.29958415 0 0 68
0 0 0 0 0 0
0 0 0 0 0 0
0.026101448 -0.39069444 -0.31437179 0 0 255
0 0 0 0 0 0
0.029838556 -0.38518867 -0.31544131 0 0 255
0 0 0 0 0 0
0 0 0 0 0 0
0 0 0 0 0 0
0 0 0 0 0 0
0 0 0 0 0 0
0.028574456 -0.37982231 -0.30759093 0 0 255
0 0 0 0 0 0
0 0 0 0 0 0
0 0 0 0 0 0
0.038542148 -0.36770639 -0.31772947 0 0 255
0.0070955427 -0.37069854 -0.2773487 0 0 255
0.0086805914 -0.37899214 -0.27138689 0 0 255
0.0013239635 -0.38329989 -0.26729283 0 0 255
0.0058765765 -0.35985076 -0.26037508 166 86 40
0.0085171936 -0.37132737 -0.27180865 52 68 1
0.015736949 -0.3661415 -0.27610689 52 68 1
0.0079641016 -0.37904564 -0.27200291 0 0 255
-0.0068223034 -0.37254652 -0.26017883 52 68 1
0 0 0 0 0 0
0.0053603426 -0.37747771 -0.27699098 52 68 1
0.0079839593 -0.36432865 -0.29005358 0 0 68
0.024465021 -0.36338153 -0.2765241 52 68 1
0.024530308 -0.36888829 -0.28066191 0 0 255
0.029502813 -0.36077034 -0.28003728 0 0 255
0.0250169 -0.37232897 -0.2842752 0 0 255
0.026090089 -0.36860254 -0.28164783 0 0 255
0.013216135 -0.35152501 -0.29362729 166 86 40
0 0 0 0 0 0
0 0 0 0 0 0
0 0 0 0 0 0
0.013374696 -0.35498324 -0.29667711 166 86 40
0 0 0 0 0 0
0.0026086336 -0.35802084 -0.31529072 0 0 68
0 0 0 0 0 0
0.0033212008 -0.34223804 -0.29919398 52 68 1
0.0085663088 -0.34426802 -0.29837838 52 68 1
0 0 0 0 0 0
0 0 0 0 0 0
0 0 0 0 0 0
0.0021295263 -0.34036955 -0.30111307 52 68 1
-0.0027759408 -0.33766401 -0.30367312 0 101 255
0 0 0 0 0 0
0.0070928638 -0.33921808 -0.30442932 52 68 1
0 0 0 0 0 0
0 0 0 0 0 0
0 0 0 0 0 0
-0.0034232135 -0.32571062 -0.29354236 0 101 255
0 0 0 0 0 0
0.0047574886 -0.31800777 -0.29148862 0 0 68
0.022418953 -0.32563594 -0.2916649 52 68 1
0.012627088 -0.35256079 -0.2894657 0 0 255
0.013382503 -0.34708047 -0.28474262 0 0 255
0 0 0 0 0 0
0.00097947777 -0.33067521 -0.2853646 52 68 1
-0.0018759333 -0.33807084 -0.27770686 52 68 1
0.0010228831 -0.33764651 -0.27933517 52 68 1
0 0 0 0 0 0
0.0099133328 -0.33889794 -0.28019944 0 0 255
0.021557085 -0.33765781 -0.27839881 52 68 1
0.0047227223 -0.35011485 -0.2661736 52 68 1
0.0043476387 -0.34703439 -0.26859909 52 68 1
0.014266061 -0.34905568 -0.26593038 52 68 1
0.020139664 -0.35095745 -0.2609534 0 0 255
0.012663728 -0.35720104 -0.25907576 52 68 1
0.0085088741 -0.33458564 -0.25920755 52 68 1
0.0010319314 -0.33080867 -0.26777977 52 68 1
-0.0018963676 -0.34351829 -0.27333447 52 68 1
0.0025188325 -0.33145252 -0.25984743 52 68 1
-0.0009605604 -0.3316873 -0.26424107 52 68 1
0.0041001146 -0.32921305 -0.26095599 77 175 74
0.0064852471 -0.33280802 -0.26096174 52 68 1
-0.0040557934 -0.33637047 -0.26002845 52 68 1
0.0002524333 -0.33207941 -0.25905588 52 68 1
0.022773415 -0.33082598 -0.26558131 52 68 1
0.0095991194 -0.34130239 -0.27411157 52 68 1
0.019424601 -0.33333051 -0.26001513 52 68 1
0.015955571 -0.32913896 -0.27450541 52 68 1
0.02309284 -0.34404203 -0.27227762 52 68 1
0.015271758 -0.33357617 -0.25949904 52 68 1
0.018771555 -0.33546174 -0.26645929 52 68 1
0.013732795 -0.33223554 -0.26003978 52 68 1
0.027787801 -0.35916191 -0.27620071 0 0 255
0 0 0 0 0 0
0.034681279 -0.33018556 -0.26243594 0 0 255
0 0 0 0 0 0
0.041214135 -0.33302262 -0.27066895 0 0 255
0.025092974 -0.35282612 -0.26406735 0 0 255
0.034606881 -0.32936159 -0.26501441 52 68 1
0 0 0 0 0 0
0 0 0 0 0 0
0.027099991 -0.35211101 -0.26666644 0 0 255
0.024772877 -0.33611909 -0.26653215 52 68 1
0.032357074 -0.34357223 -0.2657637 52 68 1
0.033425085 -0.32902402 -0.26631263 52 68 1
0.026275519 -0.33046088 -0.28660157 52 68 1
0.033023968 -0.33186489 -0.25926614 52 68 1
0.031931389 -0.33139187 -0.26262647 52 68 1
0.029670781 -0.33991233 -0.26051217 166 86 40
0.030199513 -0.33376852 -0.26357004 52 68 1
-0.005786737 -0.31989577 -0.27853048 52 68 1
-0.0069531715 -0.31757516 -0.27963385 0 0 68
-0.0025194511 -0.32087323 -0.27566341 52 68 1
0.0067639374 -0.31475791 -0.27484953 77 175 74
-0.0040923515 -0.324238 -0.28760758 0 101 255
0.0025707521 -0.32813969 -0.28929245 52 68 1
-0.0026222826 -0.31941864 -0.27574378 52 68 1
-0.0046453904 -0.32359281 -0.28514856 0 101 255
0.0021216327 -0.31741458 -0.27643916 52 68 1
-0.002256453 -0.3202495 -0.27750978 52 68 1
-0.0028171525 -0.32692778 -0.27729213 52 68 1
0.0072552264 -0.31477892 -0.27876854 52 68 1
-0.0036260984 -0.31320029 -0.28276566 52 68 1
-0.0034660723 -0.31383523 -0.27660158 77 175 74
0.0050924788 -0.31407085 -0.284233 52 68 1
0.0025205975 -0.31794727 -0.27708951 52 68 1
0.0031202571 -0.31430951 -0.27716503 52 68 1
0.0083738724 -0.31608847 -0.27539831 52 68 1
0.021932675 -0.31651822 -0.27880505 52 68 1
0.008670209 -0.31732509 -0.28056163 52 68 1
0.012829326 -0.31571218 -0.27848059 52 68 1
0.023381183 -0.32015118 -0.276034 52 68 1
0.012465087 -0.32079732 -0.27495751 52 68 1
0.0086408732 -0.31553987 -0.27996096 52 68 1
0.014453337 -0.31501639 -0.27730903 52 68 1
0.015103283 -0.31348553 -0.27556494 77 175 74
0.01445496 -0.3165406 -0.28802359 52 68 1
0.02293968 -0.31324288 -0.27776936 52 68 1
0.020393668 -0.32063997 -0.27664155 52 68 1
0.019571109 -0.32740957 -0.27542928 52 68 1
0.02091106 -0.31413004 -0.28411019 52 68 1
0.0067571835 -0.31006566 -0.28256261 52 68 1
0.0043815686 -0.31072313 -0.28470328 52 68 1
-0.0032262802 -0.30922943 -0.27568609 0 0 68
0.0077892351 -0.30637917 -0.27742878 77 175 74
-0.0024413967 -0.30712065 -0.27716509 77 175 74
0.0069236257 -0.29785645 -0.27496475 77 175 74
0 0 0 0 0 0
0.0039053923 -0.30797195 -0.28133354 0 0 68
0.0068098661 -0.30977118 -0.27787542 77 175 74
0.002735167 -0.31292611 -0.28250939 52 68 1
0.008167793 -0.30299151 -0.28343222 0 0 68
0.012600549 -0.30590844 -0.28502613 77 175 74
0.0093350094 -0.3078219 -0.28635716 52 68 1
0.017047532 -0.31192333 -0.28341985 52 68 1
0 0 0 0 0 0
0.011205972 -0.30447388 -0.28516009 77 175 74
0.013477495 -0.30395892 -0.28402644 77 175 74
0.012914552 -0.31097645 -0.27453813 77 175 74
0.016240045 -0.30843523 -0.27618369 77 175 74
0.014907174 -0.31128529 -0.28091604 52 68 1
0.020044534 -0.31145513 -0.27729496 77 175 74
0 0 0 0 0 0
0.019354958 -0.31129077 -0.27649879 77 175 74
0.0090037761 -0.30283651 -0.28026125 77 175 74
0.015185594 -0.3040278 -0.27635023 77 175 74
0 0 0 0 0 0
0.013965256 -0.29768884 -0.2747393 77 175 74
0.011400063 -0.30227962 -0.27656117 77 175 74
0.0089840712 -0.30447498 -0.27596015 77 175 74
0 0 0 0 0 0
0 0 0 0 0 0
0.018403638 -0.30400553 -0.27700147 77 175 74
0.019237587 -0.30385715 -0.27518457 77 175 74
0.01983097 -0.3053059 -0.27511424 77 175 74
-0.0014838347 -0.3227517 -0.27112865 52 68 1
8.4486317e-05 -0.32380721 -0.27280733 52 68 1
-0.003606461 -0.32603484 -0.26844889 52 68 1
0.00054817897 -0.32549429 -0.27272075 52 68 1
-0.00034694662 -0.32749468 -0.26775211 52 68 1
-0.0033222467 -0.32371527 -0.27171323 52 68 1
0.0067862333 -0.32788816 -0.26832652 52 68 1
0.007254791 -0.32298741 -0.26903769 52 68 1
0.0030003267 -0.32465878 -0.27034464 52 68 1
0.0054278346 -0.32484508 -0.26951861 52 68 1
0.0071570147 -0.322308 -0.27110699 52 68 1
-0.003801181 -0.31625274 -0.27275401 77 175 74
-0.0050486322 -0.31479171 -0.27410787 77 175 74
-0.0054322118 -0.31403989 -0.27445385 77 175 74
0.0067186356 -0.31992802 -0.27409405 52 68 1
0.0014286621 -0.31391841 -0.26719582 77 175 74
0.0073770094 -0.31555086 -0.27011138 77 175 74
0.0064120647 -0.31975049 -0.26868111 77 175 74
-0.0054445048 -0.32498816 -0.26644516 52 68 1
-0.0026718753 -0.32645687 -0.25999272 77 175 74
0.008141269 -0.32430118 -0.26649457 52 68 1
0.0080092223 -0.32375407 -0.26390123 77 175 74
0.0065903468 -0.3252176 -0.2625691 77 175 74
0.0028650146 -0.32756245 -0.26457515 52 68 1
-0.0027943535 -0.31520396 -0.26079512 77 175 74
-0.0016234412 -0.31695709 -0.26502192 77 175 74
3.7374964e-05 -0.31467342 -0.26651713 77 175 74
-0.0050145737 -0.31634912 -0.26047969 77 175 74
0.00014332896 -0.31999877 -0.26348597 77 175 74
-0.0047402983 -0.31882229 -0.26559371 77 175 74
-0.0039855666 -0.31384423 -0.26159975 77 175 74
0.0068302928 -0.31995031 -0.26158553 77 175 74
0.0080403956 -0.31842664 -0.26561707 77 175 74
0.0065406971 -0.31641045 -0.26330703 77 175 74
0.0011650145 -0.31711665 -0.26060814 77 175 74
0 0 0 0 0 0
0.016102182 -0.32428581 -0.26992068 52 68 1
0.013238862 -0.32525414 -0.26846421 52 68 1
0.019989561 -0.32632762 -0.26805636 52 68 1
0.021207921 -0.32143241 -0.2744047 52 68 1
0.018681413 -0.32561082 -0.27131912 52 68 1
0.020097891 -0.32208964 -0.26910061 52 68 1
0.012833338 -0.31600761 -0.27104437 77 175 74
0.010683063 -0.31859696 -0.27443743 52 68 1
0.011671414 -0.32001308 -0.26853356 77 175 74
0.015766537 -0.31595924 -0.26882657 77 175 74
0.0086857481 -0.31321511 -0.26784199 77 175 74
0.014357773 -0.3156952 -0.27019995 77 175 74
0.017149458 -0.31627765 -0.2742199 77 175 74
0.021817787 -0.32068479 -0.27312326 52 68 1
0.017154459 -0.31966972 -0.26958397 77 175 74
0.015086743 -0.3260656 -0.25960076 77 175 74
0.011760334 -0.32150164 -0.26404804 77 175 74
0.012362816 -0.32133508 -0.26190564 77 175 74
0.014183761 -0.32251665 -0.25923756 77 175 74
0.021735795 -0.32559282 -0.26615533 52 68 1
0.020165034 -0.32158399 -0.2629993 77 175 74
0.021829149 -0.32839483 -0.26074329 52 68 1
0.017984411 -0.32160652 -0.26319361 77 175 74
0.020392438 -0.32652575 -0.26055354 77 175 74
0.01887645 -0.32404283 -0.26629958 52 68 1
0.023653142 -0.32640412 -0.26435441 52 68 1
0.010620954 -0.32028562 -0.2612879 77 175 74
0.0130967 -0.31962982 -0.26099458 77 175 74
0.011796617 -0.31480888 -0.26630732 77 175 74
0.016320296 -0.31567401 -0.26368937 77 175 74
0.01240478 -0.31578159 -0.26378849 77 175 74
0.016283326 -0.31800586 -0.26184684 77 175 74
0.020236773 -0.31628233 -0.26577044 77 175 74
0.023939734 -0.31377599 -0.26631695 77 175 74
0.023720413 -0.3179968 -0.26043978 77 175 74
0.0185067 -0.31548908 -0.25987357 77 175 74
0.00075432914 -0.30603606 -0.26997864 77 175 74
-0.0068813451 -0.31203356 -0.27320799 0 0 68
-5.7049769e-05 -0.30892226 -0.27364826 77 175 74
-0.0029765905 -0.30725518 -0.27185008 77 175 74
-0.0040589245 -0.30970773 -0.27151442 77 175 74
-0.00029370355 -0.30631441 -0.26767534 77 175 74
-0.0058250055 -0.31195533 -0.27122268 77 175 74
-0.00040708369 -0.311306 -0.27164879 77 175 74
-0.0048466506 -0.30844834 -0.2710568 77 175 74
0.0068399445 -0.31240225 -0.27241242 77 175 74
0.00091250788 -0.31204021 -0.26793364 77 175 74
0.0061634784 -0.30833837 -0.27376151 77 175 74
0.0028478741 -0.30753899 -0.27001914 77 175 74
0.0018380554 -0.31012356 -0.27334198 77 175 74
-0.0026466984 -0.30360088 -0.26862454 0 0 68
-0.0028731029 -0.30534565 -0.27279115 0 0 68
-0.0011603377 -0.29930711 -0.26731503 77 175 74
-0.0034963593 -0.29924425 -0.26997352 77 175 74
-0.0028812299 -0.30480269 -0.26976338 77 175 74
0.0063169776 -0.29893348 -0.27032313 77 175 74
0.0052363062 -0.30222431 -0.27222311 77 175 74
0.0018010952 -0.30104509 -0.27235329 77 175 74
0.0029873585 -0.29851878 -0.26997221 77 175 74
0.00099438953 -0.29906833 -0.27035782 77 175 74
0.00073387695 -0.3095285 -0.26420397 77 175 74
-0.00071780395 -0.3129001 -0.26270881 77 175 74
-0.0018563981 -0.31239149 -0.26546404 77 175 74
-0.0021924952 -0.31275591 -0.26442999 77 175 74
-0.0046700505 -0.30574632 -0.2649816 0 0 68
0.0072848476 -0.30554181 -0.26239708 77 175 74
0.0061315703 -0.31257284 -0.26367807 77 175 74
0.0050967135 -0.30795032 -0.26322669 77 175 74
0.0037319162 -0.30950239 -0.26105902 77 175 74
0.0033803768 -0.30953982 -0.25931892 77 175 74
0.0073078633 -0.30613348 -0.26534176 77 175 74
-0.0067707244 -0.30385679 -0.266094 0 0 68
-0.0016002286 -0.30061665 -0.26591292 77 175 74
-0.0041588736 -0.29919803 -0.26292166 77 175 74
-0.0002062928 -0.30239901 -0.25946072 77 175 74
0.00023981732 -0.3013635 -0.26260814 77 175 74
-0.0012625636 -0.30009609 -0.26435566 77 175 74
0.0031596222 -0.3029567 -0.26210409 77 175 74
0.0067014126 -0.29839802 -0.26492593 77 175 74
0.0060219471 -0.30015832 -0.26018956 77 175 74
0.010612542 -0.30830795 -0.27375782 77 175 74
0.0088862227 -0.31103215 -0.26847798 77 175 74
0.012431807 -0.30681267 -0.27076757 77 175 74
0.016413197 -0.30781496 -0.26998124 77 175 74
0.022407902 -0.3102099 -0.26915956 77 175 74
0.020879038 -0.31025919 -0.26748708 77 175 74
0.019958341 -0.31192666 -0.27262604 77 175 74
0.0098357676 -0.29991645 -0.27332151 77 175 74
0.0089099109 -0.30432925 -0.27219719 77 175 74
0.014502605 -0.3016398 -0.2724939 77 175 74
0.014555155 -0.30535963 -0.26695317 77 175 74
0.014876984 -0.29833812 -0.27074665 77 175 74
0.019975202 -0.29953519 -0.2681177 77 175 74
0.018949579 -0.30029777 -0.27159572 77 175 74
0 0 0 0 0 0
0.011509393 -0.31126124 -0.26145336 77 175 74
0.013126228 -0.31089893 -0.26085383 77 175 74
0.013269597 -0.31252196 -0.26084122 77 175 74
0.013818053 -0.30767551 -0.2590335 77 175 74
0.010756982 -0.30885932 -0.26404199 77 175 74
0.019687932 -0.3083272 -0.26382357 77 175 74
0.02337563 -0.30945191 -0.26574156 77 175 74
0.022662366 -0.3104288 -0.25947049 77 175 74
0.018440221 -0.30809602 -0.26594099 77 175 74
0.011926424 -0.29823923 -0.26478907 77 175 74
0.014797142 -0.29802972 -0.26551315 77 175 74
0.012653368 -0.29879659 -0.26409087 77 175 74
0.01335448 -0.29894117 -0.26629621 77 175 74
0.014246829 -0.30230215 -0.26612875 77 175 74
0.018403085 -0.30314192 -0.25974751 77 175 74
0.022173982 -0.30035883 -0.26024356 77 175 74
0 0 0 0 0 0
0 0 0 0 0 0
0 0 0 0 0 0
0.026465155 -0.31668454 -0.27761486 52 68 1
0 0 0 0 0 0
0 0 0 0 0 0
0.025096644 -0.31206137 -0.2745344 77 175 74
0.031325717 -0.32785115 -0.26914844 52 68 1
0.026850749 -0.32596749 -0.26857665 52 68 1
0 0 0 0 0 0
0 0 0 0 0 0
0 0 0 0 0 0
0.035438586 -0.32393605 -0.26690364 52 68 1
0.034324721 -0.32160899 -0.26860359 52 68 1
0.027427133 -0.32049084 -0.27200341 52 68 1
0.027407201 -0.31990582 -0.27098572 52 68 1
0.024225377 -0.31388164 -0.27173847 77 175 74
0.025629761 -0.31838375 -0.26696637 77 175 74
0.02905954 -0.32678959 -0.26036906 77 175 74
0.0279979 -0.32493916 -0.26298299 77 175 74
0.031632546 -0.3221817 -0.26396146 77 175 74
0.026336841 -0.32577214 -0.26261008 77 175 74
0.025157556 -0.32778382 -0.26130962 52 68 1
0.031889886 -0.32661706 -0.26192915 52 68 1
0.035423614 -0.32336304 -0.26282766 77 175 74
0.036978494 -0.32647642 -0.26143384 52 68 1
0.039161664 -0.32130414 -0.26204917 77 175 74
0.035525221 -0.32700247 -0.26390138 52 68 1
0.03957456 -0.32675627 -0.2655172 52 68 1
0.03937263 -0.32506996 -0.26019058 0 0 255
0.032423127 -0.32496703 -0.26522359 52 68 1
0.034727454 -0.32792872 -0.26484099 52 68 1
0.024565209 -0.31532103 -0.26095417 77 175 74
0.025192497 -0.3194961 -0.25972638 77 175 74
0.029973863 -0.31406611 -0.26218912 77 175 74
0.026305353 -0.32025793 -0.26210839 77 175 74
0.027202494 -0.31937468 -0.25998574 77 175 74
0.03069949 -0.31739736 -0.26127717 77 175 74
0.025724845 -0.31569526 -0.26562604 77 175 74
0.031323317 -0.31861818 -0.2660878 77 175 74
0.025832035 -0.31728458 -0.26417205 77 175 74
0.027625458 -0.31436425 -0.2631658 77 175 74
0.026720671 -0.31770808 -0.26670742 77 175 74
0.026179574 -0.32046175 -0.26624274 77 175 74
0 0 0 0 0 0
0.032906853 -0.31546393 -0.26643699 77 175 74
0.039578512 -0.31905434 -0.25911102 77 175 74
0.040582884 -0.3277781 -0.26532325 52 68 1
0.041167118 -0.3204419 -0.25948557 77 175 74
0 0 0 0 0 0
0.039949279 -0.32742727 -0.26425338 52 68 1
0.029615944 -0.31082198 -0.26482788 77 175 74
0.0248404 -0.31170306 -0.26256812 77 175 74
0.02676787 -0.30563745 -0.26066419 77 175 74
0.028917313 -0.3047066 -0.2619316 77 175 74
0.028362425 -0.31211305 -0.26259699 77 175 74
0.027270893 -0.31271151 -0.26547483 77 175 74
0 0 0 0 0 0
0.02439612 -0.30503672 -0.2645382 77 175 74
0 0 0 0 0 0
0.027561735 -0.31305596 -0.27128887 77 175 74
0.025719734 -0.30795598 -0.26349321 77 175 74
0.030038882 -0.31093845 -0.26561019 77 175 74
-0.0041078948 -0.36343306 -0.24317713 166 86 40
0 0 0 0 0 0
-0.004207795 -0.37544909 -0.24851452 52 68 1
-0.0035839868 -0.360594 -0.24090917 166 86 40
-0.0034770439 -0.37438434 -0.2542688 166 86 40
0 0 0 0 0 0
-0.001879124 -0.36862603 -0.24457122 166 86 40
-0.0063226712 -0.36402291 -0.24080589 0 0 255
-0.0047747856 -0.36334565 -0.24475726 166 86 40
0.0044374052 -0.36246115 -0.24086796 0 0 255
0.0050352304 -0.36373264 -0.24304065 0 0 255
0.0084914379 -0.34516194 -0.24854466 52 68 1
0.0073902574 -0.34456992 -0.24784803 52 68 1
0.0083951829 -0.3486692 -0.25359896 52 68 1
0.0033634126 -0.34720278 -0.25620911 52 68 1
0.003518845 -0.34472856 -0.2502569 52 68 1
0.0092257271 -0.34477961 -0.24951872 52 68 1
0.010736466 -0.34601939 -0.24465618 52 68 1
0.010512993 -0.34617901 -0.24627736 52 68 1
0.014988449 -0.35627899 -0.25828016 0 0 255
0.01090228 -0.34536943 -0.24990904 52 68 1
-0.0013895495 -0.34114915 -0.25449398 52 68 1
-0.0014983035 -0.34010059 -0.2542516 52 68 1
0.0041720662 -0.33688793 -0.25292343 52 68 1
-0.0020587095 -0.33527216 -0.25174919 77 175 74
-0.0057200203 -0.33436561 -0.25401059 166 86 40
-0.0058472394 -0.3319892 -0.25354266 77 175 74
-0.006147407 -0.33318889 -0.25651726 77 175 74
-0.0022616598 -0.33521843 -0.25477347 77 175 74
-7.8032557e-05 -0.33450943 -0.25511807 77 175 74
-0.00013339214 -0.33468002 -0.25295025 77 175 74
0.0039602071 -0.33197132 -0.25385311 77 175 74
0.00035970216 -0.33912092 -0.25064152 52 68 1
0.0053211539 -0.34066433 -0.24356207 77 175 74
0.0058710179 -0.34110895 -0.24802095 166 86 40
0.0084966794 -0.34279186 -0.24923864 52 68 1
0.00081945088 -0.33756152 -0.24711111 166 86 40
-0.0011211162 -0.3294915 -0.2509321 77 175 74
-0.00081103906 -0.33095378 -0.24952179 77 175 74
-0.00086946087 -0.33158749 -0.25084183 77 175 74
0.0013295978 -0.33125788 -0.25047177 77 175 74
0.00084233005 -0.33618829 -0.24771976 77 175 74
0.0048153447 -0.33153433 -0.24996996 77 175 74
0.0044989041 -0.3311249 -0.24711554 77 175 74
0.0049266042 -0.33573997 -0.24670291 77 175 74
0.0050286748 -0.3321861 -0.24590492 77 175 74
0.0015558196 -0.33054399 -0.24911352 77 175 74
0.0063463277 -0.33444291 -0.24424745 77 175 74
0.0038120842 -0.32992226 -0.25039348 77 175 74
0.011240653 -0.33742595 -0.25865108 52 68 1
0.01452644 -0.33902493 -0.25534976 52 68 1
0.014423504 -0.33886999 -0.25153673 52 68 1
0.016058059 -0.34056795 -0.25327489 52 68 1
0.023371654 -0.3377037 -0.25319454 52 68 1
0.012346624 -0.32887629 -0.25652376 77 175 74
0 0 0 0 0 0
0.015441366 -0.33179489 -0.25641161 77 175 74
0.014785082 -0.33374086 -0.25135645 77 175 74
0.013923869 -0.33529755 -0.25491428 52 68 1
0.011762662 -0.32896498 -0.25555679 77 175 74
0.011597916 -0.3321847 -0.25368592 77 175 74
0.0096315043 -0.33181292 -0.25690559 77 175 74
0.020441875 -0.32885891 -0.25527731 77 175 74
0.019002341 -0.33518264 -0.25137016 77 175 74
0.020707762 -0.33434552 -0.25720558 52 68 1
0.0093972571 -0.34336978 -0.24815385 0 0 255
0.010129133 -0.33775628 -0.24782872 77 175 74
0.013115891 -0.33827782 -0.24404487 77 175 74
0.013722713 -0.34179714 -0.24880578 52 68 1
0.01421775 -0.3398321 -0.24369623 77 175 74
0.012368762 -0.34270924 -0.24549468 52 68 1
0.014689794 -0.33921808 -0.25008348 52 68 1
0.020945027 -0.33763683 -0.24982923 52 68 1
0.018393466 -0.337993 -0.24949439 77 175 74
0.01191582 -0.33387947 -0.24436112 77 175 74
0.015126958 -0.3340086 -0.24808972 77 175 74
0.014142226 -0.33371264 -0.2471827 77 175 74
0.011441059 -0.33390927 -0.24489263 77 175 74
0.014443103 -0.33488607 -0.24615428 77 175 74
0.020832641 -0.33331671 -0.24680911 77 175 74
0.022486364 -0.33486655 -0.24997613 77 175 74
0.018518379 -0.33461031 -0.24992852 77 175 74
0.021968875 -0.33574262 -0.24711151 0 0 255
0.017135149 -0.33596209 -0.2510936 77 175 74
0.02280427 -0.33019271 -0.24447364 77 175 74
0.018694552 -0.33600181 -0.24423058 77 175 74
0.02209755 -0.33543533 -0.25043124 77 175 74
0.0049105752 -0.35169828 -0.23305047 0 0 255
0.0042688441 -0.35835198 -0.23558988 0 0 255
0.0048026578 -0.34678179 -0.22838187 0 0 255
-0.0065343338 -0.35063151 -0.23544571 166 86 40
-0.0002764189 -0.35734648 -0.233376 166 86 40
-0.0035606369 -0.35361281 -0.23404334 166 86 40
-0.0059216544 -0.35750231 -0.2414242 166 86 40
0.010971657 -0.34515774 -0.24232884 0 0 255
0.0065254378 -0.33051795 -0.24309829 77 175 74
0.0054040826 -0.33624694 -0.23754694 166 86 40
0.0058291829 -0.33297527 -0.24129011 77 175 74
0.005444685 -0.33215922 -0.24096528 77 175 74
0.00034970974 -0.32988432 -0.24033278 77 175 74
0.007331749 -0.3385624 -0.23952077 77 175 74
0.0032370514 -0.33062813 -0.24207939 166 86 40
0 0 0 0 0 0
0.012064239 -0.33701199 -0.24216904 77 175 74
0.019991145 -0.32945839 -0.23856959 0 0 255
0.015574632 -0.32937703 -0.24305104 77 175 74
0.019153157 -0.33051905 -0.24145155 77 175 74
0 0 0 0 0 0
0.017044323 -0.33647531 -0.2424656 77 175 74
0.014175846 -0.33660826 -0.24121423 77 175 74
0.01290271 -0.34159556 -0.2425146 77 175 74
0.011558737 -0.32986426 -0.22889157 77 175 74
0.014702638 -0.33445618 -0.24009292 0 0 255
0.011448338 -0.33727831 -0.23625426 77 175 74
0.011361003 -0.3289791 -0.23305464 166 86 40
0.0090961605 -0.33552599 -0.23344922 77 175 74
0.0093030715 -0.33207262 -0.23816514 77 175 74
0.017519584 -0.33074319 -0.23556732 0 0 255
0.013035411 -0.33538526 -0.23595956 77 175 74
0.009370531 -0.34378195 -0.24326697 77 175 74
0.029836182 -0.32988644 -0.25304505 77 175 74
0.026505325 -0.33211514 -0.25200498 77 175 74
0.028700121 -0.32876101 -0.2518096 77 175 74
0.024875851 -0.33751991 -0.25279582 0 0 255
0.028374648 -0.33045048 -0.25096151 77 175 74
0.024392348 -0.33752137 -0.25337067 52 68 1
0.027135281 -0.33886218 -0.25232875 0 0 255
0.026826184 -0.33575964 -0.25687879 0 0 255
0.027059527 -0.33777761 -0.25287291 0 0 255
0.02721389 -0.33003259 -0.25443718 77 175 74
0.025725989 -0.33176085 -0.25189373 77 175 74
4.6988436e-05 -0.32307157 -0.25164348 77 175 74
-0.0048511997 -0.32367784 -0.25306156 77 175 74
-0.0041022473 -0.3257384 -0.25468752 77 175 74
-0.0069618421 -0.32824579 -0.2537539 77 175 74
-0.0011079416 -0.32784483 -0.25210166 77 175 74
-2.7103952e-05 -0.324781 -0.2586945 77 175 74
1.8079558e-05 -0.32339701 -0.25870317 77 175 74
0.00019398601 -0.32682928 -0.25727332 77 175 74
0.0041567329 -0.32354915 -0.25727108 77 175 74
0.0029673309 -0.32809144 -0.25682873 77 175 74
-0.0022293758 -0.3190181 -0.25284606 77 175 74
-0.0040639364 -0.31903228 -0.25145784 77 175 74
0.00075850624 -0.31623012 -0.25448647 77 175 74
-0.0067240722 -0.31993988 -0.25363785 77 175 74
0.0054168445 -0.31493405 -0.25511962 77 175 74
0.002166494 -0.31497574 -0.25556117 77 175 74
0.0041452907 -0.3174361 -0.25693506 77 175 74
0.007913827 -0.32012975 -0.25487664 77 175 74
0.0052096481 -0.32001546 -0.25837794 77 175 74
0.0015674137 -0.31399295 -0.25641614 77 175 74
0.005579798 -0.31828111 -0.25374687 77 175 74
-0.0048333006 -0.32599038 -0.24596411 77 175 74
-0.0047118301 -0.3240242 -0.24934202 77 175 74
-0.0035661163 -0.32538229 -0.24467623 77 175 74
-0.0028217991 -0.32375371 -0.24509242 77 175 74
-0.0052687023 -0.32643124 -0.24632326 77 175 74
-3.9191877e-05 -0.32418767 -0.24631134 77 175 74
0.0028568243 -0.32357454 -0.25005773 77 175 74
0.0084589161 -0.3261354 -0.24624032 77 175 74
0.0037397761 -0.32456419 -0.25092587 77 175 74
0.0036293129 -0.32224077 -0.24651244 77 175 74
0.0062329937 -0.32750279 -0.24771994 77 175 74
-0.0062510241 -0.31656021 -0.24468219 77 175 74
0.0015034063 -0.31538647 -0.24726309 77 175 74
0.0049438681 -0.31867358 -0.24611259 77 175 74
0.002321329 -0.31391606 -0.24655059 77 175 74
0.010784421 -0.32267624 -0.2580682 77 175 74
0.013137486 -0.32719782 -0.25285801 77 175 74
0.010069548 -0.32206681 -0.25723296 77 175 74
0.0143138 -0.32548729 -0.25811717 77 175 74
0.010665825 -0.32660663 -0.25437933 77 175 74
0.016815886 -0.32713994 -0.25225347 77 175 74
0.018190322 -0.32621393 -0.25699997 77 175 74
0.01642633 -0.32707763 -0.25777212 77 175 74
0.021735122 -0.32284147 -0.25405622 77 175 74
0.022947447 -0.32515049 -0.25762635 77 175 74
0.013137479 -0.31593844 -0.25784934 77 175 74
0.013871552 -0.32030514 -0.2576243 77 175 74
0.011490546 -0.31505767 -0.25121054 77 175 74
0.0132545 -0.32018015 -0.25512397 77 175 74
0.011707372 -0.31558049 -0.25549281 77 175 74
0.016078254 -0.31987724 -0.25152394 77 175 74
0.019252073 -0.3186976 -0.25126654 77 175 74
0.020411782 -0.31425938 -0.25369713 77 175 74
0.023880366 -0.31985691 -0.25880793 77 175 74
0.008744725 -0.32419965 -0.24910432 77 175 74
0.012680332 -0.32220975 -0.24385077 77 175 74
0.0096188039 -0.32791853 -0.24438979 77 175 74
0.013555298 -0.32801005 -0.25021869 77 175 74
0.016289108 -0.32495692 -0.2443005 77 175 74
0.012963925 -0.3284345 -0.24517719 77 175 74
0.017796991 -0.32512471 -0.24807684 77 175 74
0.022742631 -0.3285428 -0.24758844 77 175 74
0.0087171523 -0.31822893 -0.24629 77 175 74
0.012310852 -0.31629696 -0.25021499 77 175 74
0.013438377 -0.31688654 -0.24955241 77 175 74
0.01302883 -0.31907874 -0.24416476 77 175 74
0.022091275 -0.31502071 -0.25021091 77 175 74
0.019102614 -0.31765848 -0.24417403 77 175 74
0.017936973 -0.31897038 -0.24616696 77 175 74
0.020131692 -0.31793469 -0.24791551 77 175 74
0.018125691 -0.31767792 -0.24675499 77 175 74
0.024014827 -0.3154586 -0.24443515 77 175 74
0.022198003 -0.3169995 -0.24455513 77 175 74
0.00039085571 -0.3069922 -0.25130653 77 175 74
-0.002850716 -0.30623609 -0.25355086 77 175 74
-0.0050017345 -0.3083961 -0.25415087 77 175 74
-0.0051807826 -0.31193522 -0.2584441 77 175 74
-0.0016831459 -0.30666274 -0.25444788 77 175 74
0.0056070825 -0.30734 -0.25254786 77 175 74
0.0013347612 -0.31074595 -0.25178137 77 175 74
0.0065946602 -0.3060351 -0.25705877 77 175 74
0.0015826279 -0.31284973 -0.25573409 77 175 74
0.0043431153 -0.31087124 -0.25742689 77 175 74
0.0023524533 -0.3101477 -0.25163996 77 175 74
0.0057163965 -0.31125543 -0.2536312 77 175 74
-0.0069135725 -0.30004942 -0.25882798 77 175 74
-0.0047163027 -0.3024919 -0.25346714 77 175 74
-0.0015261995 -0.30150265 -0.25332403 77 175 74
-0.0060845888 -0.29839271 -0.25875434 77 175 74
-0.0061198804 -0.30409744 -0.25415486 77 175 74
-0.0054888893 -0.30234912 -0.25247866 77 175 74
-0.0020425341 -0.30502737 -0.25822553 77 175 74
0.0040238332 -0.29888389 -0.25155115 77 175 74
0.004304836 -0.30454695 -0.25549847 77 175 74
0.0063855979 -0.30325919 -0.25205913 77 175 74
0.0025572923 -0.29775882 -0.2569541 77 175 74
0.0080946106 -0.29836196 -0.25707859 77 175 74
0.0026224919 -0.30407307 -0.25500044 77 175 74
-0.0065566199 -0.313151 -0.25038132 77 175 74
-0.0012116905 -0.30922714 -0.24715775 77 175 74
-0.0013681147 -0.30794731 -0.24514408 77 175 74
-0.0040886085 -0.30749932 -0.24649255 77 175 74
-0.0013183096 -0.30625486 -0.24492605 77 175 74
-0.0016307785 -0.31152806 -0.24645197 77 175 74
0.0020470405 -0.31107271 -0.24843232 77 175 74
0.0044630775 -0.30584031 -0.24373499 77 175 74
-0.0046787206 -0.29945666 -0.24423356 77 175 74
-0.00042504672 -0.30026421 -0.24947909 77 175 74
-0.0031837767 -0.30011317 -0.2461585 77 175 74
-0.00040445843 -0.29922101 -0.24768767 77 175 74
0.0028532459 -0.30337772 -0.24912305 77 175 74
0.0053048655 -0.30074424 -0.24395752 77 175 74
0.0036210229 -0.299858 -0.24550122 77 175 74
0 0 0 0 0 0
0.016305937 -0.31032109 -0.25451356 77 175 74
0.0099906381 -0.30874953 -0.25305283 77 175 74
0.01514515 -0.31132907 -0.25306964 77 175 74
0.0087545766 -0.3090736 -0.25244099 77 175 74
0.0087809451 -0.30787387 -0.25308773 77 175 74
0.0097919796 -0.30543396 -0.25700331 77 175 74
0.015078789 -0.31184515 -0.25778875 77 175 74
0.017918063 -0.30976418 -0.25309938 77 175 74
0.019354034 -0.30577812 -0.25285402 77 175 74
0.016659256 -0.31252035 -0.25139511 77 175 74
0.023517814 -0.30734333 -0.25510475 77 175 74
0.01637811 -0.30555996 -0.25777099 77 175 74
0.017622318 -0.30677584 -0.25251022 77 175 74
0.021695135 -0.30976215 -0.25849557 77 175 74
0.012798575 -0.29886886 -0.25443968 77 175 74
0.015833313 -0.29923114 -0.25708091 77 175 74
0.0099357022 -0.30276489 -0.25631782 77 175 74
0.011496458 -0.30076614 -0.25821212 77 175 74
0.011846282 -0.30369177 -0.25453487 77 175 74
0.0093610194 -0.30495158 -0.25361487 77 175 74
0.0090520317 -0.30148035 -0.25507882 77 175 74
0.0091081308 -0.2998175 -0.2549682 77 175 74
0.0089022554 -0.29819286 -0.2563872 77 175 74
0.010972141 -0.30324122 -0.25582364 77 175 74
0.020129193 -0.29943198 -0.2587851 77 175 74
0.019613652 -0.29977226 -0.25241542 77 175 74
0.019858915 -0.29822966 -0.25579628 77 175 74
0.016881714 -0.29870293 -0.25571361 77 175 74
0.021803224 -0.30081838 -0.25246552 77 175 74
0.022461491 -0.3030836 -0.25358835 77 175 74
0.020588296 -0.29889861 -0.25391713 77 175 74
0.020858666 -0.3053222 -0.25513861 77 175 74
0.009371249 -0.30603939 -0.24608696 77 175 74
0.011497435 -0.31177855 -0.25082543 77 175 74
0.016084651 -0.30569986 -0.25091216 77 175 74
0.0096241664 -0.31301326 -0.24919638 77 175 74
0.01533411 -0.30995375 -0.24961947 77 175 74
0.015412699 -0.30999896 -0.24586414 77 175 74
0.013961259 -0.31103304 -0.24353647 77 175 74
0.01281247 -0.30969161 -0.24913608 77 175 74
0.018528882 -0.31218255 -0.24544051 77 175 74
0.017873636 -0.30698606 -0.24684493 77 175 74
0.019393224 -0.31161851 -0.2491163 77 175 74
0.02013587 -0.31270048 -0.24901479 77 175 74
0.017841404 -0.31168103 -0.24380147 77 175 74
0.021898707 -0.31085333 -0.2489869 77 175 74
0.0093116611 -0.30417132 -0.24799839 77 175 74
0.013762213 -0.30352294 -0.24463408 77 175 74
0.0095185321 -0.29821172 -0.24417438 77 175 74
0.0096413717 -0.30139333 -0.24615709 77 175 74
0.019256599 -0.29880163 -0.24657664 77 175 74
0.017939543 -0.29908517 -0.24725293 77 175 74
0.019838532 -0.29799455 -0.24798335 77 175 74
0.022534914 -0.29932564 -0.24905284 77 175 74
8.1215141e-05 -0.32262018 -0.23662357 77 175 74
-0.0009660974 -0.32478392 -0.23697245 77 175 74
0.0068860156 -0.32205138 -0.24221613 77 175 74
0.0019746595 -0.32319307 -0.24309567 77 175 74
0.0010235499 -0.32453486 -0.23965563 77 175 74
-0.0059278132 -0.31813598 -0.23895639 77 175 74
-0.0042993701 -0.31425208 -0.24251938 77 175 74
-0.0062294728 -0.32071501 -0.24178278 166 86 40
-0.0051091807 -0.31685865 -0.24220306 77 175 74
-0.0012906939 -0.32036936 -0.24039105 77 175 74
-0.0028884211 -0.32005736 -0.23904477 77 175 74
-0.002473383 -0.31988949 -0.23896974 77 175 74
0.0039145467 -0.31401852 -0.24084556 77 175 74
0.0055873985 -0.31975621 -0.24158494 77 175 74
0.0041594319 -0.31364432 -0.23636411 77 175 74
0.0061797099 -0.31685016 -0.24315381 77 175 74
0.00019124347 -0.32135662 -0.23338826 77 175 74
0.0018478921 -0.32288828 -0.232269 77 175 74
0.0055036452 -0.32626694 -0.23406662 77 175 74
0.0039731981 -0.32422772 -0.23096932 77 175 74
0.0082149338 -0.32098132 -0.23241182 77 175 74
-0.0030356396 -0.3158837 -0.23465714 77 175 74
-0.0061538178 -0.31638655 -0.23499681 166 86 40
0.0043310714 -0.31635264 -0.23176588 77 175 74
0.0045022406 -0.3160331 -0.22911054 77 175 74
0.0031183586 -0.3195681 -0.23427324 77 175 74
0.0066108373 -0.31798956 -0.23467372 77 175 74
0 0 0 0 0 0
0.0015971119 -0.31788677 -0.23351642 77 175 74
0.0072412291 -0.31371275 -0.2326609 77 175 74
0.0032425504 -0.31712493 -0.23298129 77 175 74
0.0059188781 -0.31979457 -0.23550358 77 175 74
0.0024033883 -0.31417456 -0.23146494 77 175 74
0.0078742309 -0.31590945 -0.23347023 77 175 74
0.010745808 -0.32529348 -0.23909682 77 175 74
0.013463857 -0.3210631 -0.23684706 77 175 74
0.010693248 -0.32598826 -0.24050221 77 175 74
0.011092335 -0.32855815 -0.2370505 77 175 74
0.022963092 -0.32184553 -0.24090283 77 175 74
0.020057868 -0.32151484 -0.24339335 77 175 74
0.012579669 -0.3196536 -0.23701867 77 175 74
0.012048037 -0.31992459 -0.2421764 77 175 74
0.01075805 -0.31800228 -0.24148993 77 175 74
0.0098771174 -0.3193402 -0.24154814 77 175 74
0.017960353 -0.32068497 -0.24294724 77 175 74
0.019197015 -0.3151854 -0.24140407 77 175 74
0.020127324 -0.31478378 -0.24075648 77 175 74
0.022968801 -0.31986168 -0.24165852 77 175 74
0.018434506 -0.3195546 -0.23646651 77 175 74
0.010269147 -0.32591507 -0.23356247 77 175 74
0.011252342 -0.32712924 -0.23115762 77 175 74
0.010572556 -0.32704049 -0.23228003 77 175 74
0.012977097 -0.32595047 -0.22961734 0 0 255
0.013092377 -0.32187375 -0.23440666 77 175 74
0.011104948 -0.32782722 -0.22911896 77 175 74
0.01279965 -0.32522708 -0.23215406 77 175 74
0.014824363 -0.32647836 -0.23071148 77 175 74
0.013550836 -0.32834178 -0.23068181 77 175 74
0.016604884 -0.32748407 -0.23462726 77 175 74
0.017999977 -0.32744342 -0.23483351 0 0 255
0.018660655 -0.32226628 -0.23452143 77 175 74
0.018101348 -0.32495928 -0.23545761 77 175 74
0.012782365 -0.31564274 -0.23082809 77 175 74
0.014879056 -0.32081798 -0.22889666 77 175 74
0.015934033 -0.31834769 -0.23340578 77 175 74
0.008961753 -0.31730399 -0.23507607 77 175 74
0.011410402 -0.32042253 -0.23190974 77 175 74
0.010009197 -0.31507427 -0.23142673 77 175 74
0.015787002 -0.31462201 -0.22927906 77 175 74
0.012239845 -0.31434733 -0.22828995 77 175 74
0.016972471 -0.31822261 -0.22797097 77 175 74
0.02006845 -0.31880274 -0.23157391 77 175 74
0.02161726 -0.31350943 -0.2304388 0 0 255
0.018256329 -0.31398135 -0.23388009 77 175 74
0.022225305 -0.31454796 -0.23364705 77 175 74
0.022935078 -0.31668058 -0.23482817 77 175 74
0.01913549 -0.32067847 -0.23397386 77 175 74
-0.0014630988 -0.30761701 -0.23785089 77 175 74
-0.0042873262 -0.30803749 -0.24122201 77 175 74
-0.006185357 -0.31049752 -0.23991013 77 175 74
0.00046584682 -0.30867305 -0.23572983 77 175 74
-0.0034892578 -0.30853111 -0.24199229 77 175 74
-0.0062676957 -0.3071737 -0.23704123 77 175 74
0.0049167885 -0.30542976 -0.23808604 77 175 74
0.0030684483 -0.30728453 -0.23568453 77 175 74
0.0066979188 -0.31261343 -0.23731013 77 175 74
0.0042384826 -0.31129253 -0.24099629 77 175 74
0.0023453226 -0.30925667 -0.23964275 77 175 74
-0.0044909688 -0.29874098 -0.23841238 77 175 74
-0.0023897588 -0.30530187 -0.236936 77 175 74
-0.0036889142 -0.29986414 -0.24093635 77 175 74
0.007311217 -0.29823229 -0.23907305 77 175 74
0.0070150332 -0.30224404 -0.24106885 77 175 74
0.0079386216 -0.30218893 -0.23895817 77 175 74
0.0072927936 -0.29929602 -0.23963496 77 175 74
0.0014891722 -0.30168658 -0.23648749 77 175 74
0.0068672099 -0.30338123 -0.24296838 77 175 74
-0.0058151712 -0.30700111 -0.2280287 77 175 74
-0.0067221448 -0.30827379 -0.23192939 166 86 40
-0.0064433683 -0.30595824 -0.23514286 77 175 74
-0.0047411616 -0.30624139 -0.22800051 77 175 74
-0.0050181355 -0.3098557 -0.22919132 77 175 74
0.00035977122 -0.31135476 -0.22786909 77 175 74
0.0071881413 -0.31032038 -0.22820637 77 175 74
0.0073519377 -0.30668136 -0.23048189 77 175 74
0.0011676324 -0.31167787 -0.23074543 77 175 74
0.006112027 -0.31027371 -0.23015329 77 175 74
-0.0048800386 -0.3053503 -0.22886266 166 86 40
-6.9703114e-05 -0.30468592 -0.23046334 77 175 74
-0.0031473602 -0.29801497 -0.23225901 77 175 74
-0.0047698366 -0.30504751 -0.23037003 77 175 74
-0.0050768014 -0.29939619 -0.22800665 77 175 74
-0.0018430006 -0.30137289 -0.23309976 77 175 74
-0.0026086166 -0.29833579 -0.22791125 77 175 74
-0.005145519 -0.30319029 -0.2316023 77 175 74
0.0069899177 -0.29846257 -0.23287487 77 175 74
0.0041241823 -0.2997759 -0.23385867 77 175 74
0.002808731 -0.30518943 -0.23096386 77 175 74
0.0074038729 -0.29985365 -0.2282908 77 175 74
0.0081398105 -0.29993054 -0.23289673 77 175 74
0.013533217 -0.31085688 -0.23786384 77 175 74
0.016773807 -0.31289127 -0.23581949 77 175 74
0.022911632 -0.31164697 -0.24108723 77 175 74
0.021239374 -0.30744338 -0.24236339 77 175 74
0.017489437 -0.30604228 -0.23735511 77 175 74
0.0091282148 -0.30477369 -0.23946176 77 175 74
0.012406363 -0.29892877 -0.23779958 77 175 74
0.0091206199 -0.30382189 -0.24082074 77 175 74
0.01001808 -0.30301264 -0.24058966 77 175 74
0.023744749 -0.30010176 -0.24142739 77 175 74
0.018434921 -0.30217555 -0.23947789 77 175 74
0.010907908 -0.31005192 -0.23484491 77 175 74
0.0092913751 -0.31272542 -0.23526216 77 175 74
0.011576404 -0.31138539 -0.23354523 77 175 74
0.021055195 -0.30842263 -0.23067085 77 175 74
0.023831623 -0.30822369 -0.2317761 77 175 74
0.018357558 -0.30833682 -0.23499246 77 175 74
0.019870749 -0.30938762 -0.23256654 77 175 74
0.014236461 -0.30099875 -0.23084101 77 175 74
0.011631726 -0.30498448 -0.22902457 77 175 74
0.010655404 -0.30126214 -0.23031752 77 175 74
0.015913161 -0.30428404 -0.23467608 77 175 74
0.016107986 -0.30233797 -0.2347104 77 175 74
0.0096015977 -0.30226719 -0.23347123 77 175 74
0.011780346 -0.30080235 -0.23146708 77 175 74
0.01997651 -0.30452672 -0.23143329 77 175 74
0.022994701 -0.30214515 -0.23121513 77 175 74
0.021940263 -0.30358437 -0.22971053 77 175 74
0.016761437 -0.30312344 -0.23296061 77 175 74
0.023363777 -0.29937786 -0.23126815 77 175 74
0.017965134 -0.30423763 -0.23246612 77 175 74
0.025842013 -0.3214274 -0.25855869 77 175 74
0.024212044 -0.32705998 -0.2584759 77 175 74
0.02644599 -0.32419199 -0.25715572 77 175 74
0.033891708 -0.32163078 -0.25896406 77 175 74
0.035110924 -0.32313499 -0.2553781 0 0 255
0.027005088 -0.31784728 -0.25226378 77 175 74
0.029218584 -0.31468892 -0.25494131 77 175 74
0.026256189 -0.31367964 -0.2562322 77 175 74
0.030498393 -0.31813437 -0.25309801 77 175 74
0.031171996 -0.31774247 -0.25634015 77 175 74
0.026709981 -0.31679431 -0.25299883 77 175 74
0.031428084 -0.32064843 -0.25424564 77 175 74
0.025281716 -0.32048839 -0.25897104 77 175 74
0.035786655 -0.31459495 -0.25697234 77 175 74
0.031922419 -0.32057384 -0.25530401 77 175 74
0.035197187 -0.31471628 -0.25650072 77 175 74
0.03313721 -0.31324202 -0.25778097 77 175 74
0.036106672 -0.31710291 -0.2540918 77 175 74
0.038267799 -0.31886804 -0.25587249 77 175 74
0.029472871 -0.32311246 -0.24767552 77 175 74
0.024645409 -0.32347134 -0.24357146 77 175 74
0.030872704 -0.32382613 -0.24584851 77 175 74
0.028547289 -0.32394239 -0.24479568 0 0 255
0.029381009 -0.3258163 -0.24741283 166 86 40
0.028887086 -0.31552231 -0.24996305 77 175 74
0.036781359 -0.31546375 -0.24981359 77 175 74
0.035176173 -0.31561187 -0.24826466 77 175 74
0.03319535 -0.31606877 -0.24608593 77 175 74
0.03244992 -0.31780949 -0.24998909 77 175 74
0.037247594 -0.31318086 -0.24643104 77 175 74
0.041867558 -0.3169505 -0.25624856 77 175 74
0.029341064 -0.306063 -0.25392428 77 175 74
0.024220871 -0.30847579 -0.25130004 77 175 74
0.025346182 -0.30576271 -0.25215739 77 175 74
0.030089721 -0.30978099 -0.25699469 77 175 74
0.034490995 -0.30726066 -0.25424254 77 175 74
0.033380181 -0.31021968 -0.25638968 77 175 74
0.031931084 -0.30914769 -0.25225613 77 175 74
0.033850372 -0.30790314 -0.25785327 77 175 74
0.034967247 -0.31074223 -0.25505486 77 175 74
0.033737529 -0.3072896 -0.25773263 77 175 74
0 0 0 0 0 0
0.032377496 -0.30261877 -0.25312275 77 175 74
0.026252998 -0.30553555 -0.24940765 77 175 74
0.028554361 -0.30959147 -0.24702881 77 175 74
0.026875384 -0.31250507 -0.25036079 77 175 74
0.024645438 -0.3095808 -0.24968401 77 175 74
0 0 0 0 0 0
0.039522387 -0.31028107 -0.24786873 0 0 255
0.032741521 -0.30881768 -0.24792841 77 175 74
0.036018681 -0.31185499 -0.24986005 77 175 74
0 0 0 0 0 0
0.039337642 -0.30770546 -0.24930434 77 175 74
0.025587324 -0.30365515 -0.24441801 77 175 74
0.029291119 -0.30010059 -0.24885342 77 175 74
0.030409198 -0.30039713 -0.24492942 77 175 74
0.02860892 -0.29910749 -0.25107658 77 175 74
0.026260376 -0.30286637 -0.25018635 77 175 74
0.028188774 -0.30119351 -0.24669026 77 175 74
0.028950242 -0.30331469 -0.24907827 77 175 74
0 0 0 0 0 0
0.030691424 -0.30007088 -0.24390016 77 175 74
0.02962576 -0.3022579 -0.24893793 77 175 74
0 0 0 0 0 0
0.038150296 -0.30322167 -0.24629338 77 175 74
0 0 0 0 0 0
0.035345376 -0.30110589 -0.24760759 77 175 74
0.037831742 -0.30284286 -0.24796069 77 175 74
0.027668167 -0.32417834 -0.24300423 0 0 255
0.03154387 -0.31832668 -0.240348 77 175 74
0.024864618 -0.32250911 -0.24200319 77 175 74
0.031376615 -0.32125154 -0.24051628 0 0 255
0.024988286 -0.31466222 -0.24024604 77 175 74
0.031947598 -0.31534433 -0.23770022 77 175 74
0.025289426 -0.32019484 -0.23809272 77 175 74
0.025546348 -0.32000569 -0.236434 0 0 255
0.025427347 -0.31514817 -0.23564534 0 0 255
0.024476988 -0.31894198 -0.24311893 77 175 74
0.026341727 -0.31918153 -0.23777616 0 0 255
0.02872766 -0.31462917 -0.24104548 0 0 255
0.029562883 -0.31564277 -0.23896383 77 175 74
0.027305536 -0.31543109 -0.23635007 0 0 255
0.030791625 -0.30572602 -0.24120088 77 175 74
0.026417103 -0.3054074 -0.2420169 77 175 74
0.030186055 -0.30604467 -0.24089932 77 175 74
0.031934138 -0.31220177 -0.24036972 77 175 74
0.033743732 -0.31085619 -0.24320592 0 0 255
0.033022597 -0.30836794 -0.24013422 0 0 255
0.033290729 -0.31150785 -0.2425493 77 175 74
0.03300577 -0.30781823 -0.23806351 77 175 74
0.033618812 -0.31228733 -0.2428472 77 175 74
0.035009686 -0.30923304 -0.24008772 77 175 74
0.025127081 -0.30431828 -0.23914573 77 175 74
0.029603738 -0.30484623 -0.242525 77 175 74
0.025931502 -0.30041587 -0.23654097 77 175 74
0.029620601 -0.3017219 -0.24013035 77 175 74
0.028067429 -0.30244496 -0.24081455 77 175 74
0.02717559 -0.30123341 -0.24280965 77 175 74
0.031752009 -0.30132383 -0.23932415 77 175 74
0.035582848 -0.30257276 -0.24206151 77 175 74
0.034751404 -0.30516645 -0.23703809 77 175 74
0.032512102 -0.29927674 -0.23984253 77 175 74
0.038137879 -0.29839137 -0.23600002 77 175 74
0.038156986 -0.29987225 -0.24209036 77 175 74
0.036771439 -0.3020829 -0.23972496 77 175 74
0.035279356 -0.29899162 -0.23683538 77 175 74
0.034703307 -0.3008334 -0.24171282 77 175 74
0.038179222 -0.29987845 -0.24101929 77 175 74
0.036132019 -0.30508193 -0.23843262 77 175 74
0.032342978 -0.3009052 -0.2430708 77 175 74
0.037746545 -0.30084303 -0.24077965 0 0 255
0.027969427 -0.30904615 -0.23202094 77 175 74
0.030248178 -0.31216708 -0.23263033 166 86 40
0.024190094 -0.31102499 -0.23077264 77 175 74
0.026682936 -0.3101621 -0.23082279 77 175 74
0.026670313 -0.3078627 -0.23342936 77 175 74
0.028363511 -0.30861136 -0.2310091 0 0 255
0.024941232 -0.3100208 -0.23019619 0 0 255
0.030518098 -0.30409145 -0.23096773 77 175 74
0.027688583 -0.3035621 -0.2337843 77 175 74
0.027858127 -0.30058414 -0.23194635 77 175 74
0.027711781 -0.29961562 -0.23343509 77 175 74
0.025892798 -0.30448872 -0.22829565 77 175 74
0.029155497 -0.30265331 -0.23056737 77 175 74
0.027806709 -0.30074805 -0.23041697 77 175 74
0.033496834 -0.29938421 -0.2300946 77 175 74
0.034295894 -0.2995216 -0.23430967 77 175 74
0.032204323 -0.30089664 -0.22904699 77 175 74
0.034958377 -0.29893094 -0.2311787 77 175 74
0.03476866 -0.29848003 -0.2324671 0 0 255
0 0 0 0 0 0
-0.006253859 -0.33416027 -0.21616212 166 86 40
-0.0041026315 -0.33956787 -0.218934 166 86 40
-0.00039478741 -0.34140456 -0.21685976 166 86 40
-0.006878858 -0.33611035 -0.22129123 166 86 40
0.0013277268 -0.33299461 -0.21204886 0 0 255
0.0012648962 -0.34994555 -0.22543295 0 0 255
-0.0023578601 -0.33188653 -0.21069121 166 86 40
0.0082973642 -0.32113937 -0.22133288 166 86 40
0.0036655439 -0.31612453 -0.22574221 166 86 40
0.0036052992 -0.32079795 -0.22630043 77 175 74
0.0015464168 -0.31741795 -0.22666086 166 86 40
0.00080029957 -0.31568927 -0.22662535 77 175 74
0.018450299 -0.31724271 -0.22662759 77 175 74
0.013229429 -0.3185041 -0.21969764 0 0 255
0.010609963 -0.3149178 -0.22426517 77 175 74
0.018872961 -0.3168436 -0.22676371 0 0 255
0.011258032 -0.32168639 -0.22253828 77 175 74
0.013293336 -0.31971365 -0.22096051 0 0 255
0.011573918 -0.31480706 -0.21561584 77 175 74
0.011562975 -0.31742308 -0.21763797 77 175 74
0.011990224 -0.32620898 -0.22588421 77 175 74
0.015406702 -0.31624535 -0.2235571 0 0 255
0.0095728291 -0.31644946 -0.21869345 0 0 255
0.01768706 -0.31462577 -0.22729701 77 175 74
0.012155665 -0.32461169 -0.22700085 77 175 74
0.019870825 -0.31351903 -0.22560655 77 175 74
0 0 0 0 0 0
-0.0033292596 -0.30951872 -0.22631192 77 175 74
-0.0027556261 -0.3073374 -0.22440073 77 175 74
0.0018077301 -0.31128204 -0.225545 77 175 74
0.0055357763 -0.30597001 -0.22259431 77 175 74
0.001240361 -0.30692405 -0.22093898 77 175 74
0.0010842875 -0.30745637 -0.22014548 166 86 40
0.0045811166 -0.30618563 -0.22580951 77 175 74
0.0061378898 -0.30900773 -0.22425802 77 175 74
0.0028388801 -0.31185019 -0.22130771 166 86 40
-0.0052651274 -0.30271485 -0.22254854 166 86 40
-0.0058499267 -0.30158255 -0.22509255 77 175 74
-0.0045732511 -0.30158052 -0.22232743 166 86 40
0.005237917 -0.30365011 -0.2265884 77 175 74
0.005591624 -0.30411083 -0.22438818 77 175 74
0.0063090054 -0.30089048 -0.22107169 77 175 74
0.00093581568 -0.30534467 -0.22551334 77 175 74
0.0021946281 -0.30469549 -0.22162792 77 175 74
0.002214212 -0.30394936 -0.22745095 77 175 74
0.0072301142 -0.30094779 -0.22628909 77 175 74
0.00073344895 -0.30553579 -0.21820389 77 175 74
0.0083103934 -0.30928484 -0.21413891 77 175 74
0.0029194246 -0.30875129 -0.21596222 77 175 74
-0.00047178843 -0.30119675 -0.21592066 77 175 74
-0.0035774447 -0.30010268 -0.21911247 77 175 74
-0.0008486046 -0.29818299 -0.21686503 77 175 74
-0.0037857688 -0.29768229 -0.21761785 77 175 74
-0.0048327935 -0.29882321 -0.21987051 77 175 74
-0.0013982764 -0.30205891 -0.21527514 166 86 40
0.0034805275 -0.30195841 -0.21799381 77 175 74
0.00085348607 -0.29780674 -0.21736309 77 175 74
0.0073427856 -0.30011597 -0.21629712 77 175 74
0.0045383647 -0.303978 -0.21356165 77 175 74
0.0048319302 -0.30480418 -0.2159247 77 175 74
0.003823603 -0.30536205 -0.21391651 77 175 74
0.014765523 -0.30543828 -0.2276032 77 175 74
0.0097407801 -0.30996656 -0.22345911 77 175 74
0.011567005 -0.30806324 -0.22784285 77 175 74
0.010212324 -0.30762786 -0.22076125 77 175 74
0.015171036 -0.30546722 -0.22124529 77 175 74
0.016045824 -0.3096334 -0.22736248 77 175 74
0.021332506 -0.31217384 -0.22644046 0 0 255
0.019433282 -0.30691257 -0.22102995 0 0 255
0.021718487 -0.3107276 -0.22343971 0 0 255
0.023286799 -0.30832219 -0.22459114 77 175 74
0.011679091 -0.29762933 -0.22048856 77 175 74
0.011324634 -0.30486244 -0.22702849 77 175 74
0.013215327 -0.30078456 -0.22194336 77 175 74
0.01386137 -0.29782388 -0.22530456 77 175 74
0.014212616 -0.29761076 -0.22034249 77 175 74
0.014089448 -0.29994777 -0.22417539 77 175 74
0.019808458 -0.2976492 -0.22622699 77 175 74
0.023208359 -0.30444819 -0.22635864 77 175 74
0.01718384 -0.29905382 -0.22336787 77 175 74
0.020671008 -0.30117241 -0.22624975 77 175 74
0.014838505 -0.30758417 -0.21902233 77 175 74
0.011683703 -0.31150153 -0.21943764 77 175 74
0.014203913 -0.30688035 -0.2159206 77 175 74
0.0145802 -0.311629 -0.21562624 77 175 74
0.014578922 -0.30087614 -0.21940221 77 175 74
0.0098974509 -0.30129924 -0.21592101 77 175 74
0.014134941 -0.29763886 -0.21700367 77 175 74
0.019260529 -0.30134133 -0.21405798 77 175 74
0.023978008 -0.30157056 -0.21937715 77 175 74
-1.8421342e-05 -0.31943491 -0.19756311 0 0 255
-0.0058169663 -0.31938997 -0.20242986 166 86 40
0.0068413634 -0.29951647 -0.20528972 77 175 74
0.002136233 -0.2989611 -0.20700131 77 175 74
0.0017376986 -0.29838628 -0.21173473 166 86 40
0.0083640534 -0.30702275 -0.21203388 0 0 255
0.0029371867 -0.29922131 -0.20723568 77 175 74
0 0 0 0 0 0
0.00079079403 -0.29838935 -0.21034753 77 175 74
0.005132094 -0.30401558 -0.20860331 77 175 74
0.0062582884 -0.30398351 -0.20715894 77 175 74
0.0046630949 -0.30293748 -0.20364961 0 0 255
0 0 0 0 0 0
0.013175162 -0.30197573 -0.21053846 77 175 74
0.009986137 -0.30371118 -0.20314009 77 175 74
0.012443928 -0.29878119 -0.21132763 77 175 74
0.010217772 -0.30508426 -0.20458843 77 175 74
0.01446735 -0.30396411 -0.20527811 0 0 255
0.0096292226 -0.31144616 -0.21158798 77 175 74
0.014058672 -0.30641252 -0.21058153 77 175 74
0.011168487 -0.30217904 -0.20358315 77 175 74
0.017233286 -0.29882014 -0.20725076 77 175 74
