ply
format ascii 1.0
comment PCL generated
element vertex 1115
property float x
property float y
property float z
property uchar red
property uchar green
property uchar blue
element camera 0
property float view_px
property float view_py
property float view_pz
property float x_axisx
property float x_axisy
property float x_axisz
property float y_axisx
property float y_axisy
property float y_axisz
property float z_axisx
property float z_axisy
property float z_axisz
property float focal
property float scalex
property float scaley
property float centerx
property float centery
property int viewportx
property int viewporty
property float k1
property float k2
end_header
-0.00056825712 -0.30721453 -0.27990776 55 126 184
0.0065682773 -0.30172917 -0.27967864 55 126 184
0.0069130091 -0.30271569 -0.28223118 55 126 184
-0.0035805157 -0.30518118 -0.27842867 0 0 68
-0.0034972955 -0.30580857 -0.27722251 0 255 248
0.0056504672 -0.3106187 -0.28890854 55 126 184
0.0036347003 -0.30634633 -0.28256562 55 126 184
0.017125012 -0.30929944 -0.28212419 55 126 184
0.019113436 -0.30623132 -0.279392 55 126 184
0.020151136 -0.30779892 -0.27770022 55 126 184
0.015192932 -0.30408889 -0.2881884 55 126 184
0.015597244 -0.31193709 -0.2882894 55 126 184
0.017758984 -0.30983517 -0.28206781 55 126 184
0.011001288 -0.29970396 -0.28014717 55 126 184
0.011557397 -0.2982066 -0.27816775 0 255 248
0.015637733 -0.30263576 -0.28410974 55 126 184
0.022134105 -0.30959657 -0.27753922 55 126 184
0.015932495 -0.30801493 -0.28066573 55 126 184
-0.00075183192 -0.32272944 -0.2713677 55 126 184
-0.0070758397 -0.31399781 -0.2681739 55 126 184
0.0037591606 -0.32401752 -0.26958537 55 126 184
0.0018764886 -0.32427618 -0.27071217 55 126 184
0.0036234639 -0.32674274 -0.26844087 55 126 184
0.0025140259 -0.31837714 -0.26783097 55 126 184
0.0046957638 -0.3128601 -0.26446399 55 126 184
-0.0071095205 -0.31405893 -0.27661437 55 126 184
-0.0021267675 -0.32694659 -0.26327401 55 126 184
-0.0042649568 -0.32296866 -0.27648297 55 126 184
0.0025976829 -0.31585196 -0.26935875 55 126 184
0.0069197793 -0.31840542 -0.27078703 55 126 184
0.0041277455 -0.31578335 -0.26599699 55 126 184
0.0043124156 -0.3150436 -0.27379739 55 126 184
0.01135303 -0.32298625 -0.27429402 55 126 184
0.016050631 -0.32613388 -0.26740637 55 126 184
0.013129097 -0.32729954 -0.26960728 55 126 184
0.01962979 -0.31840193 -0.26493648 55 126 184
0.014453947 -0.31963694 -0.2668781 55 126 184
0.009686064 -0.31824556 -0.26908681 55 126 184
0.020356314 -0.32223022 -0.27036062 55 126 184
0.016299602 -0.32726282 -0.26932669 55 126 184
0.011306544 -0.31887054 -0.26456773 55 126 184
0.01357132 -0.32195041 -0.2717602 55 126 184
0.013039551 -0.31455517 -0.26724201 55 126 184
0.013746018 -0.31970301 -0.2737332 55 126 184
0.008719326 -0.32255915 -0.26742151 55 126 184
-0.0067900489 -0.30370936 -0.26682857 0 255 248
-0.008030666 -0.30071384 -0.26364532 0 255 248
-0.0013030804 -0.30299747 -0.27464083 0 255 248
-0.0027008306 -0.30903319 -0.26713762 55 126 184
0.00057100441 -0.310285 -0.27157727 55 126 184
-0.0075522885 -0.30957907 -0.2709516 55 126 184
0.00064991374 -0.30571768 -0.27281269 55 126 184
0.00037490067 -0.30172256 -0.27646503 55 126 184
-0.00092326262 -0.29991397 -0.26704627 55 126 184
-0.0034203453 -0.30606186 -0.27240583 55 126 184
-0.0021398088 -0.30333754 -0.26608622 55 126 184
0.0026406085 -0.3070254 -0.27264425 55 126 184
-0.0018333499 -0.31084543 -0.27664697 55 126 184
-0.003872853 -0.30512723 -0.27300593 55 126 184
0.00083848304 -0.30492899 -0.26763248 55 126 184
-0.005521094 -0.29737934 -0.26189971 55 126 184
0.0044046254 -0.29904154 -0.27149865 55 126 184
0.001111861 -0.29859659 -0.26371077 55 126 184
0.0067622666 -0.30467194 -0.27002287 55 126 184
0.020000871 -0.30928954 -0.26543993 55 126 184
0.016343925 -0.30084813 -0.26898322 55 126 184
0.015521104 -0.30320841 -0.2616491 55 126 184
0.014762173 -0.30003592 -0.27442324 55 126 184
0.0083635468 -0.30939326 -0.27578834 55 126 184
0.016583968 -0.30538693 -0.27240992 55 126 184
0.022060569 -0.30152345 -0.26383433 55 126 184
0.014445963 -0.30993214 -0.27401677 55 126 184
0.013852509 -0.29844698 -0.27029178 55 126 184
0.017711625 -0.30862001 -0.26891783 55 126 184
0.011352344 -0.30959454 -0.26588568 55 126 184
0.01541344 -0.30695438 -0.26235357 55 126 184
0.01512587 -0.30879661 -0.26865241 55 126 184
0.013159289 -0.30557677 -0.27183306 55 126 184
0.011771897 -0.31216222 -0.27333769 55 126 184
0.025154212 -0.31669918 -0.28352407 55 126 184
0.026299484 -0.314987 -0.27847958 55 126 184
0.024432886 -0.31305012 -0.2800574 55 126 184
0.032388739 -0.31920591 -0.27715981 55 126 184
0.023615303 -0.31369254 -0.27987775 55 126 184
0.025010947 -0.31213981 -0.27757525 55 126 184
0.023309508 -0.31808099 -0.26638103 55 126 184
0.023886818 -0.31814051 -0.26337281 55 126 184
0.031325564 -0.32031071 -0.27236128 55 126 184
0.026523083 -0.32473835 -0.27249065 55 126 184
0.035700485 -0.32557118 -0.26917371 55 126 184
0.026508134 -0.31948125 -0.26153025 55 126 184
0.0359556 -0.32004407 -0.26214218 55 126 184
0.029833082 -0.31571248 -0.27649674 55 126 184
0.03531722 -0.32767314 -0.26408204 55 126 184
0.029910883 -0.32204843 -0.27284461 55 126 184
0.039924953 -0.32507217 -0.27370885 55 126 184
0.022647826 -0.30236501 -0.27533162 55 126 184
0.025202276 -0.29985195 -0.26560858 55 126 184
0.02450203 -0.311919 -0.26931301 55 126 184
0.032946538 -0.31097507 -0.26805899 55 126 184
0.025326703 -0.30517972 -0.27449337 0 255 248
0.028009772 -0.30938885 -0.27240273 55 126 184
0.025003821 -0.30858335 -0.26170871 55 126 184
0 0 0 0 0 0
-0.0081229359 -0.36227936 -0.25264478 0 255 248
0 0 0 0 0 0
-0.0014165159 -0.37535197 -0.2587184 0 255 248
-0.0051676692 -0.33042929 -0.25497153 55 126 184
-0.001508464 -0.34050462 -0.25769454 0 255 248
0.0070266197 -0.34010723 -0.24709138 55 126 184
0.0015170004 -0.33045495 -0.25279656 55 126 184
0.0069226776 -0.3402732 -0.25831869 55 126 184
0.004802308 -0.33768046 -0.24828227 0 255 248
-0.0055336957 -0.33475384 -0.25987715 55 126 184
-0.0041517783 -0.32872424 -0.25374812 55 126 184
0.0047924882 -0.33536065 -0.24963115 55 126 184
-0.0050629424 -0.33407283 -0.25962871 55 126 184
0.005066203 -0.335152 -0.24687052 55 126 184
0.021861099 -0.33123711 -0.25065497 0 255 248
0.0074351961 -0.32989293 -0.24708128 55 126 184
0.019405954 -0.3327435 -0.24814023 55 126 184
0.020156834 -0.33837438 -0.25404018 55 126 184
0.020455986 -0.33386916 -0.25969204 55 126 184
0.019620584 -0.33544844 -0.24853398 55 126 184
0.017770808 -0.33657268 -0.25745952 55 126 184
0.008217752 -0.33419183 -0.24949829 55 126 184
0.011197114 -0.33434495 -0.24885844 55 126 184
0.0085088303 -0.34308007 -0.24861412 55 126 184
0.0088047236 -0.342554 -0.25435182 55 126 184
0.021768237 -0.3409276 -0.2580806 0 255 248
0.010655916 -0.34261125 -0.25183254 255 183 156
-0.0059294044 -0.35029337 -0.23897006 0 255 248
-0.0012439818 -0.35302246 -0.23604025 0 0 68
-0.0056316624 -0.35020065 -0.23836976 0 255 248
0.0066456557 -0.35749924 -0.24314909 255 183 156
0.0053712106 -0.35683015 -0.24105661 255 183 156
0.012354097 -0.33112329 -0.23724079 55 126 184
0.019150957 -0.3307274 -0.24518646 0 255 248
0.012349082 -0.32850775 -0.24413425 55 126 184
0.012725628 -0.33627123 -0.24510849 55 126 184
0.011239946 -0.33870593 -0.24263275 55 126 184
0.01299758 -0.33450705 -0.24195939 55 126 184
0.013369924 -0.33063331 -0.23717812 55 126 184
0.01401198 -0.33463949 -0.2399236 55 126 184
0.0093176644 -0.3282845 -0.24559745 55 126 184
0.024478214 -0.34019533 -0.25867581 55 126 184
0.022810098 -0.32888243 -0.24652533 55 126 184
0.027331671 -0.33725256 -0.25677609 0 255 248
0.025775407 -0.33016708 -0.2593036 55 126 184
0.030416589 -0.33376142 -0.26052839 0 0 68
0.0054610372 -0.31741577 -0.25452462 55 126 184
-0.0030625823 -0.31635261 -0.26066312 55 126 184
0.0070782211 -0.3264305 -0.25125882 55 126 184
-0.0037294864 -0.3204568 -0.25433165 55 126 184
-0.0044051227 -0.32520407 -0.24952206 55 126 184
0.00389217 -0.3167167 -0.24819747 55 126 184
0.0066430024 -0.32040343 -0.24849592 55 126 184
0.00097157125 -0.3141385 -0.25386304 55 126 184
-0.0063937041 -0.31886092 -0.24834794 55 126 184
0.0014952249 -0.32501402 -0.24915363 55 126 184
-0.0051946025 -0.32429153 -0.25755695 55 126 184
-0.0026384944 -0.31390551 -0.24639443 55 126 184
0.0048235762 -0.31418732 -0.2497942 55 126 184
0.001262905 -0.32502609 -0.25021514 55 126 184
0.0086244866 -0.32548138 -0.25071186 55 126 184
0.016395224 -0.31823874 -0.25117752 55 126 184
0.016524959 -0.31432033 -0.24799591 55 126 184
0.010883301 -0.32603848 -0.24651507 55 126 184
0.008389351 -0.32440105 -0.25157198 55 126 184
0.010632953 -0.31648546 -0.25373083 55 126 184
0.021472434 -0.31532544 -0.25348604 55 126 184
0.01909581 -0.31368136 -0.25590613 55 126 184
0.016869057 -0.32777143 -0.2496184 55 126 184
0.012583561 -0.32265389 -0.2516956 55 126 184
0.0071527879 -0.31362593 -0.25562644 55 126 184
0.015473005 -0.31376845 -0.25830352 55 126 184
0.0020200047 -0.30944967 -0.25485542 55 126 184
-0.005728323 -0.30180705 -0.24802372 55 126 184
-0.00523576 -0.30302206 -0.24876188 55 126 184
0.002200814 -0.30346158 -0.24647923 55 126 184
-0.0043232539 -0.30761459 -0.25762698 55 126 184
-0.0050000292 -0.30542064 -0.26024547 55 126 184
-0.0048428616 -0.3061237 -0.25982186 55 126 184
-0.0064776922 -0.29829508 -0.25751507 55 126 184
0.010529287 -0.2982915 -0.25765198 55 126 184
0.018715428 -0.3092021 -0.25877133 55 126 184
0.014792656 -0.30124515 -0.25253505 55 126 184
0.016371384 -0.29828012 -0.26059896 55 126 184
0.018963747 -0.30340189 -0.25360888 55 126 184
0.0074851094 -0.30389479 -0.24877508 55 126 184
0.010538865 -0.31225336 -0.25667548 55 126 184
0.019565733 -0.30246031 -0.25584602 55 126 184
0.022364166 -0.29850265 -0.24652527 55 126 184
0.010603337 -0.30327305 -0.25177988 55 126 184
0.0074723875 -0.30270466 -0.25473583 55 126 184
0.0094551649 -0.30701011 -0.25397336 55 126 184
0.019966938 -0.30581942 -0.25165793 55 126 184
0.01455346 -0.29967874 -0.2570231 55 126 184
0.0083107743 -0.31008223 -0.25924918 55 126 184
0.020745939 -0.30712664 -0.26009932 55 126 184
0.014630903 -0.3067334 -0.24730842 55 126 184
0.017304277 -0.30636904 -0.24920696 55 126 184
0.015983004 -0.30371994 -0.25024015 55 126 184
0.013173882 -0.3073695 -0.25535187 55 126 184
0.0058428245 -0.31775305 -0.24356471 55 126 184
-0.0020144293 -0.31972012 -0.24301533 55 126 184
0.001189856 -0.32682285 -0.24430653 55 126 184
-0.0022404878 -0.31372386 -0.2426118 55 126 184
0.0067656254 -0.3126983 -0.24006169 55 126 184
-0.0011820082 -0.32005411 -0.24063002 55 126 184
-0.0039362973 -0.31903517 -0.2448023 55 126 184
0.0054962216 -0.32487828 -0.23411033 55 126 184
0.0017157173 -0.31565937 -0.24311896 55 126 184
0.0052360529 -0.31706768 -0.24411349 55 126 184
-0.002953809 -0.31906635 -0.24314494 55 126 184
-0.0034903917 -0.32342643 -0.24563272 55 126 184
0.009662319 -0.31375793 -0.24053887 55 126 184
0.018747218 -0.32781246 -0.23947485 0 255 248
0.01503322 -0.31769341 -0.24294077 55 126 184
0.018645765 -0.31526947 -0.23615529 55 126 184
0.01749968 -0.32612699 -0.23793694 55 126 184
0.012010189 -0.32783672 -0.2409348 55 126 184
0.0079899114 -0.31796402 -0.23278926 55 126 184
0.013710348 -0.32431108 -0.2357945 55 126 184
0.021267954 -0.31415558 -0.24260671 55 126 184
0.01776452 -0.32243705 -0.23503976 55 126 184
0.019994346 -0.31390584 -0.23104304 55 126 184
0.014763363 -0.32704803 -0.23988968 55 126 184
0.017394498 -0.32043311 -0.23659274 55 126 184
-0.003239332 -0.30758929 -0.24231887 55 126 184
-0.00067725731 -0.30767804 -0.24206965 55 126 184
-0.0059244847 -0.30185807 -0.2340851 55 126 184
-0.0068287104 -0.30330944 -0.2402951 55 126 184
-0.0039265519 -0.305381 -0.2311793 55 126 184
-0.0022050436 -0.31193262 -0.24326743 55 126 184
0.0037360436 -0.31046712 -0.23228727 55 126 184
-0.0078416076 -0.30192894 -0.23858023 55 126 184
0.0065193344 -0.30428097 -0.23710757 55 126 184
-0.0070162048 -0.30632952 -0.23400354 55 126 184
0.018052738 -0.31132621 -0.23107284 55 126 184
0.0080586299 -0.31232765 -0.24153653 55 126 184
0.020233897 -0.31218788 -0.23585652 55 126 184
0.012352817 -0.30882865 -0.23157641 55 126 184
0.0076856758 -0.29755399 -0.23611566 55 126 184
0.0095335338 -0.30189034 -0.2430222 55 126 184
0.010192208 -0.30749729 -0.23870987 55 126 184
0.0094280997 -0.3124564 -0.23823626 55 126 184
0.012651714 -0.3012684 -0.23423401 55 126 184
0.017464554 -0.3032687 -0.24095719 55 126 184
0.01066687 -0.29753166 -0.23433466 55 126 184
0.013292748 -0.30554119 -0.23859578 55 126 184
0.011849577 -0.30774382 -0.23809689 55 126 184
0.0076384423 -0.3066839 -0.2314139 55 126 184
0.011638651 -0.30289418 -0.23080793 55 126 184
0.019544428 -0.30778226 -0.24163224 55 126 184
0.019656742 -0.31007564 -0.23096807 55 126 184
0.019941643 -0.29932517 -0.23227914 55 126 184
0.01474837 -0.30092075 -0.2355444 55 126 184
0.032565109 -0.32566002 -0.25035641 55 126 184
0.024693863 -0.31856048 -0.25193471 55 126 184
0.036539856 -0.31750184 -0.25611597 55 126 184
0.02742981 -0.32446122 -0.25905627 55 126 184
0.030501569 -0.3128832 -0.26003751 55 126 184
0.030531973 -0.32091451 -0.24619897 0 0 68
0.029268028 -0.32564652 -0.25276378 55 126 184
0.037975278 -0.31280321 -0.25467467 55 126 184
0.030344706 -0.32782167 -0.25704724 55 126 184
0.035370313 -0.32027882 -0.25739703 55 126 184
0.029064579 -0.32257229 -0.25215581 55 126 184
0.025857661 -0.32031578 -0.25309801 55 126 184
0.033098876 -0.31583703 -0.26003909 55 126 184
0.026453588 -0.32074776 -0.25939181 55 126 184
0.026080117 -0.31770581 -0.25402209 55 126 184
0.03817692 -0.31818801 -0.25988474 55 126 184
0.03052897 -0.30720523 -0.25844407 55 126 184
0.027639499 -0.30518875 -0.24714576 55 126 184
0.023872802 -0.31041148 -0.25373363 55 126 184
0.036646929 -0.31039399 -0.24704881 55 126 184
0.029642316 -0.29750681 -0.24827641 55 126 184
0.035523508 -0.30314586 -0.25684172 55 126 184
0.026147509 -0.30487707 -0.26035732 55 126 184
0.037091982 -0.31117442 -0.2481844 55 126 184
0.028467476 -0.30301699 -0.2503235 55 126 184
0.023798013 -0.30192071 -0.25672692 55 126 184
0.035865333 -0.30968019 -0.2459325 255 183 156
0.024379347 -0.30947173 -0.25116244 55 126 184
0.032436062 -0.30075213 -0.25438657 55 126 184
0.040991772 -0.30166012 -0.2468916 55 126 184
0.039580211 -0.30671501 -0.24859466 55 126 184
0.030013649 -0.31331483 -0.23940685 0 0 68
0.026113044 -0.31417781 -0.23945196 255 183 156
0.029991725 -0.30857807 -0.2441328 55 126 184
0.025702927 -0.30823755 -0.24460483 55 126 184
0.028180037 -0.31204891 -0.24073376 55 126 184
0.023155004 -0.30762592 -0.24107687 55 126 184
0.032308966 -0.30638671 -0.24186507 55 126 184
0.031325821 -0.30970684 -0.24195501 55 126 184
0.031449843 -0.30481449 -0.24493186 55 126 184
0.030465672 -0.31229708 -0.2430445 55 126 184
0.035645284 -0.30345884 -0.24212226 55 126 184
0.036327947 -0.29798818 -0.2439155 55 126 184
0.034917649 -0.29850721 -0.23831178 55 126 184
0.033113763 -0.29808947 -0.24323873 55 126 184
0.034890935 -0.30064377 -0.24561009 55 126 184
0.028126383 -0.30898669 -0.23513415 255 183 156
0.029011901 -0.31213292 -0.23750064 255 183 156
0.02906712 -0.30521658 -0.23021604 255 183 156
0.025210377 -0.31040213 -0.2378618 55 126 184
0.028828174 -0.30708078 -0.23544393 55 126 184
0.026398145 -0.31115597 -0.23611723 55 126 184
0.033177357 -0.30588859 -0.23274833 0 255 248
0.026815766 -0.2988705 -0.23742154 55 126 184
0.024191357 -0.30208781 -0.23438998 55 126 184
0.033398703 -0.30270767 -0.2368941 55 126 184
0.038290389 -0.29815882 -0.23708788 255 183 156
0 0 0 0 0 0
0.0043555484 -0.34270304 -0.2258445 255 183 156
0.014774992 -0.32206574 -0.22939689 55 126 184
0.01375551 -0.31529301 -0.2208682 55 126 184
0.01296448 -0.32587901 -0.23005137 55 126 184
0.010842311 -0.32236412 -0.22525229 0 255 248
0.010440432 -0.32005984 -0.22263794 55 126 184
0.013899043 -0.31825683 -0.22522591 255 183 156
0.0029548772 -0.29904744 -0.22096093 55 126 184
0.0003734116 -0.29959077 -0.22791328 55 126 184
0.0023430439 -0.29890808 -0.21717486 0 255 248
0.0061650896 -0.30526933 -0.2164472 55 126 184
-0.0028952744 -0.30622321 -0.22708145 55 126 184
0.0067240726 -0.31183577 -0.21793191 55 126 184
-0.0019208045 -0.30624235 -0.22736463 55 126 184
0.0059050038 -0.30603635 -0.21878044 55 126 184
0.0053860135 -0.30688021 -0.21952066 0 0 68
0.0016807154 -0.29804209 -0.22151041 55 126 184
0.0010778228 -0.30314171 -0.22836432 55 126 184
0.0028546958 -0.30854073 -0.22604072 55 126 184
0.0044795489 -0.29718268 -0.21867999 55 126 184
0.018029161 -0.30733848 -0.22108355 0 255 248
0.018455327 -0.30230999 -0.21513535 55 126 184
0.018006511 -0.30509493 -0.22913121 55 126 184
0.01521964 -0.30242759 -0.21814306 55 126 184
0.017921977 -0.30226427 -0.22747616 55 126 184
0.02021154 -0.29792494 -0.21931626 55 126 184
0.013820357 -0.30601257 -0.21852727 55 126 184
0.013376767 -0.3053121 -0.22660439 55 126 184
0.019512661 -0.3095471 -0.22662567 55 126 184
0.014849273 -0.29954162 -0.22796221 55 126 184
0.0097621884 -0.30739972 -0.22000596 55 126 184
0.022214973 -0.29927915 -0.22003405 55 126 184
0.016261246 -0.29947823 -0.21054551 55 126 184
0.011143974 -0.30462259 -0.20818083 55 126 184
0.015679682 -0.30653188 -0.21183985 255 183 156
0.011991994 -0.29814193 -0.21315505 55 126 184
0.029087001 -0.3009735 -0.22981861 55 126 184
0.029119896 -0.29720032 -0.22626735 55 126 184
0.013166116 -0.29429024 -0.27850035 55 126 184
0.010521773 -0.29089653 -0.27850914 255 183 156
0.011974132 -0.29067132 -0.27839956 55 126 184
0 0 0 0 0 0
0.0015312905 -0.28881931 -0.26227465 55 126 184
0.005136407 -0.28932679 -0.26828265 55 126 184
0.0066895676 -0.2863299 -0.26935166 55 126 184
-0.0015764748 -0.29247859 -0.26147753 0 255 248
-0.0062775421 -0.29693791 -0.26705623 0 255 248
0.007065081 -0.28430054 -0.26361927 55 126 184
0.0012256111 -0.29601824 -0.27172437 0 255 248
0.017607665 -0.29194701 -0.26282915 55 126 184
0.0078726392 -0.29348978 -0.27300867 55 126 184
0.022611151 -0.29435381 -0.26344946 55 126 184
0.016942266 -0.28514832 -0.26404685 55 126 184
0.018686298 -0.29662538 -0.27048162 55 126 184
0.017995862 -0.28288081 -0.26232719 0 0 68
0.014994274 -0.29189429 -0.27217841 0 0 68
0.011360344 -0.28712118 -0.27209777 0 255 248
0.0071717273 -0.28411236 -0.26592517 55 126 184
0.016661907 -0.29669592 -0.27486971 55 126 184
0.0079010474 -0.29314727 -0.26396737 55 126 184
0.012791054 -0.29338917 -0.27523774 55 126 184
0.021749826 -0.29185787 -0.26402578 55 126 184
0.010821751 -0.28917408 -0.2612887 55 126 184
0.017874552 -0.28614265 -0.2638337 55 126 184
0.010595024 -0.28455412 -0.27295184 55 126 184
0 0 0 0 0 0
0 0 0 0 0 0
0.011632039 -0.28069758 -0.26728117 55 126 184
0.00060911267 -0.28608277 -0.24846366 55 126 184
0.00047678879 -0.28338 -0.25681004 55 126 184
0.0052009453 -0.28904954 -0.25910637 55 126 184
-0.001946927 -0.28328153 -0.25961927 55 126 184
0.0059706927 -0.28712267 -0.25801739 55 126 184
-0.0018734639 -0.29134202 -0.25373179 55 126 184
0.0063282717 -0.29080862 -0.25283536 55 126 184
0.0027556722 -0.28643376 -0.25702283 55 126 184
-0.0032510224 -0.2863214 -0.25713408 0 255 248
0.0046741059 -0.29191956 -0.25799033 55 126 184
-0.0012838842 -0.28210694 -0.24725649 55 126 184
-0.0072846073 -0.28625438 -0.25246122 0 255 248
-0.0041240561 -0.28665212 -0.25387931 55 126 184
-0.0019128073 -0.29168466 -0.24883744 55 126 184
0.0039756862 -0.29283124 -0.25827527 55 126 184
0.0037409505 -0.2846086 -0.24612746 55 126 184
-0.0044173631 -0.28530189 -0.2536298 55 126 184
0.0036547545 -0.29167587 -0.25564367 55 126 184
0.0080670258 -0.28333256 -0.25492847 55 126 184
0.015886685 -0.28493538 -0.25114641 55 126 184
0.011386953 -0.28401861 -0.2606791 55 126 184
0.020810515 -0.28490415 -0.24981703 55 126 184
0.0087051755 -0.28744611 -0.25755221 55 126 184
0.014231803 -0.28860867 -0.24855235 55 126 184
0.019420741 -0.29002187 -0.25813198 55 126 184
0 0 0 0 0 0
0.021602359 -0.29335886 -0.24914791 55 126 184
0.020431709 -0.28871083 -0.25755507 55 126 184
0.0091023901 -0.28789482 -0.24647376 55 126 184
0.019032471 -0.2902922 -0.247613 55 126 184
0.021775817 -0.28822267 -0.26083636 55 126 184
0.015494983 -0.28349042 -0.25857413 55 126 184
0.011509537 -0.28904736 -0.2565487 55 126 184
0.011113022 -0.28177696 -0.258912 55 126 184
0.0079519227 -0.28680396 -0.25046158 55 126 184
0.017414177 -0.29287201 -0.24847542 55 126 184
0.0024782135 -0.27911976 -0.25093603 55 126 184
0.0031310322 -0.27362892 -0.24738158 55 126 184
0.0040933108 -0.28076747 -0.24735245 55 126 184
0.0052761994 -0.27603817 -0.25747064 55 126 184
0.003258039 -0.2710337 -0.24678864 55 126 184
0.0042173741 -0.28097287 -0.25003335 55 126 184
0.0036198131 -0.27899063 -0.25124824 55 126 184
0 0 0 0 0 0
0 0 0 0 0 0
0 0 0 0 0 0
0 0 0 0 0 0
0.0097541781 -0.28039181 -0.25725621 55 126 184
0.0096974848 -0.28048792 -0.25333753 55 126 184
0 0 0 0 0 0
0 0 0 0 0 0
0 0 0 0 0 0
0 0 0 0 0 0
0 0 0 0 0 0
0 0 0 0 0 0
0 0 0 0 0 0
0.011013444 -0.27882868 -0.24591215 55 126 184
0.011967659 -0.27212882 -0.25883597 0 0 68
0 0 0 0 0 0
0 0 0 0 0 0
0.020116866 -0.27225831 -0.24825281 0 0 68
0.0075911758 -0.27696106 -0.25847557 255 183 156
-0.0014847474 -0.2863304 -0.2336233 55 126 184
0.0065057999 -0.28510576 -0.23767567 55 126 184
-0.0042282254 -0.28276348 -0.23826951 55 126 184
0.0053163334 -0.29205367 -0.23763856 55 126 184
-0.0062603639 -0.29052553 -0.24372649 55 126 184
-0.0023710621 -0.29008359 -0.24175115 55 126 184
-0.0034700437 -0.29693645 -0.24044581 55 126 184
0.0051998934 -0.28684235 -0.24326201 55 126 184
-0.0018331578 -0.28745613 -0.23880427 55 126 184
0.00057123305 -0.29056293 -0.24487008 55 126 184
-0.0035151327 -0.29208407 -0.23367985 55 126 184
0.0038747366 -0.29397699 -0.23837425 55 126 184
-0.00010173576 -0.28587714 -0.2333855 55 126 184
0.00026238215 -0.29663417 -0.23408872 55 126 184
-0.0083324257 -0.2839694 -0.24134973 55 126 184
-0.002019807 -0.29363829 -0.23260829 55 126 184
0.0038191995 -0.29083607 -0.23722151 55 126 184
-0.00044844829 -0.29504412 -0.24380782 55 126 184
-0.0041383081 -0.28803414 -0.23456509 55 126 184
0.0097879367 -0.29145449 -0.23500879 55 126 184
0.011991964 -0.29132256 -0.24222723 55 126 184
0.009156446 -0.28974897 -0.23365884 55 126 184
0.015382101 -0.28327644 -0.24423811 55 126 184
0.022120884 -0.28529331 -0.24244674 55 126 184
0.012300218 -0.2934759 -0.24118291 55 126 184
0.0073664929 -0.29470628 -0.23428412 55 126 184
0.018476192 -0.28619066 -0.24184041 55 126 184
0.01799011 -0.29050002 -0.23212133 55 126 184
0.015189771 -0.29216957 -0.24486257 55 126 184
0.0076112906 -0.28949487 -0.24535866 55 126 184
0.016197503 -0.2893585 -0.24382386 55 126 184
0.0075222757 -0.2917791 -0.24171318 55 126 184
0.020566814 -0.2931366 -0.24327488 55 126 184
0.021246798 -0.29592431 -0.23860626 55 126 184
0.019926649 -0.29678756 -0.23834921 55 126 184
0.018161774 -0.28555596 -0.23233779 55 126 184
0.014124618 -0.28590989 -0.23495457 55 126 184
-0.002192226 -0.26836818 -0.24080896 0 255 248
-0.0026236537 -0.27474478 -0.24538381 55 126 184
0.0020897994 -0.27765363 -0.23229012 55 126 184
-0.0079421233 -0.27109143 -0.24058422 0 255 248
-7.041252e-05 -0.27793589 -0.24446575 55 126 184
0 0 0 0 0 0
0 0 0 0 0 0
0 0 0 0 0 0
0.0097839292 -0.27328044 -0.24191348 55 126 184
0.011969248 -0.28047335 -0.23692667 55 126 184
0.017364347 -0.2796402 -0.23480146 55 126 184
0 0 0 0 0 0
0 0 0 0 0 0
0 0 0 0 0 0
0 0 0 0 0 0
0 0 0 0 0 0
0.017256552 -0.27909538 -0.2353636 55 126 184
0 0 0 0 0 0
0.022136347 -0.27182162 -0.24292882 0 255 248
0 0 0 0 0 0
0.014880753 -0.28116664 -0.24455425 55 126 184
0.034361344 -0.29256088 -0.24667986 0 255 248
0.023226304 -0.29391345 -0.254206 55 126 184
0 0 0 0 0 0
0.022843556 -0.28632998 -0.24733633 55 126 184
0.024576215 -0.28678346 -0.24710791 55 126 184
0.031102877 -0.29385081 -0.25231084 55 126 184
0.025810421 -0.29609105 -0.25001177 55 126 184
0.026610376 -0.28969094 -0.25279528 55 126 184
0.034531467 -0.29539388 -0.24813573 0 255 248
0.028063953 -0.29262096 -0.25632134 55 126 184
0.023201978 -0.2761263 -0.24995986 0 255 248
0 0 0 0 0 0
0.028170891 -0.2880592 -0.23089857 55 126 184
0.025531774 -0.29093507 -0.23567614 55 126 184
0 0 0 0 0 0
0.026621459 -0.2918179 -0.24072748 55 126 184
0 0 0 0 0 0
0.025875177 -0.29042181 -0.23937508 55 126 184
0.036062948 -0.28996423 -0.23323219 0 0 68
0 0 0 0 0 0
0.024889512 -0.28713301 -0.24567239 55 126 184
0.03318819 -0.29574203 -0.23817305 55 126 184
0.035966899 -0.29498988 -0.24196772 55 126 184
0.031360809 -0.29347119 -0.24084122 55 126 184
0 0 0 0 0 0
0.035261452 -0.29576281 -0.2360094 55 126 184
0 0 0 0 0 0
0 0 0 0 0 0
0 0 0 0 0 0
0.023112116 -0.27815911 -0.24510463 0 255 248
0 0 0 0 0 0
0 0 0 0 0 0
0 0 0 0 0 0
0 0 0 0 0 0
0 0 0 0 0 0
0 0 0 0 0 0
0 0 0 0 0 0
0 0 0 0 0 0
-0.0026528265 -0.26538074 -0.23872456 0 0 68
0.0043308972 -0.28797927 -0.22121793 55 126 184
-0.007031206 -0.29216215 -0.21883224 55 126 184
-0.0012206946 -0.29428568 -0.22407655 55 126 184
0.0036220243 -0.29079786 -0.22135518 55 126 184
0.0052927099 -0.29017437 -0.2270577 55 126 184
-0.00077132549 -0.29167995 -0.22918718 55 126 184
0.0026652473 -0.29141128 -0.22281027 55 126 184
-0.0021095516 -0.29324037 -0.21940471 55 126 184
-0.0079127587 -0.29190072 -0.23003756 55 126 184
-0.0021492366 -0.29601261 -0.21780257 55 126 184
-0.0049393387 -0.29449424 -0.22613403 55 126 184
0.00037658022 -0.29183415 -0.22951463 55 126 184
-0.0078726495 -0.29046205 -0.22445442 55 126 184
0.0054424163 -0.29325685 -0.22564797 55 126 184
0.00026433554 -0.28580871 -0.22880796 55 126 184
0.0058647851 -0.29156539 -0.2265964 55 126 184
0.014713276 -0.2939125 -0.21701828 55 126 184
0.019183861 -0.29431474 -0.22292456 55 126 184
0.020096876 -0.284805 -0.22601818 55 126 184
0.0084683439 -0.2934159 -0.21749106 55 126 184
0.011449447 -0.29083455 -0.22901182 55 126 184
0.019804919 -0.28589183 -0.22991034 55 126 184
0.0098820282 -0.28695357 -0.22236359 55 126 184
0.0077288449 -0.29132152 -0.22589387 55 126 184
0.018751316 -0.29280549 -0.21817505 55 126 184
0.020512642 -0.28512406 -0.22244255 55 126 184
0.018439552 -0.29261473 -0.22805703 55 126 184
0.019426377 -0.29246563 -0.22910564 55 126 184
0.014361578 -0.28397891 -0.22688082 55 126 184
0.00013082153 -0.28082964 -0.22964853 55 126 184
-0.0017206832 -0.27997905 -0.2285592 55 126 184
0 0 0 0 0 0
0.01839317 -0.2957606 -0.21185783 55 126 184
0 0 0 0 0 0
0.020506615 -0.29345861 -0.21461372 55 126 184
0.02991147 -0.29468611 -0.22871715 55 126 184
0 0 0 0 0 0
0 0 0 0 0 0
0.02732913 -0.29449782 -0.22094074 55 126 184
0 0 0 0 0 0
0.023452461 -0.29003239 -0.22297041 55 126 184
0.033295821 -0.29251122 -0.22964683 55 126 184
0 0 0 0 0 0
0 0 0 0 0 0
0.025494585 -0.29004553 -0.21994655 55 126 184
0.030792505 -0.28986183 -0.22577024 55 126 184
-0.0050150412 -0.25460628 -0.22411174 0 255 248
-0.0069996286 -0.26119906 -0.22864346 0 255 248
-0.004468712 -0.24399275 -0.21481153 77 175 74
0.019216716 -0.24294379 -0.21642952 77 175 74
0 0 0 0 0 0
0.015269458 -0.24036603 -0.21754134 77 175 74
0.014048353 -0.23559649 -0.21606986 77 175 74
-0.0036360505 -0.25106725 -0.20172092 77 175 74
0.0050544864 -0.25358045 -0.20443545 77 175 74
0.017730838 -0.25201306 -0.20666723 77 175 74
0.01200773 -0.25293624 -0.19974269 77 175 74
0.010651581 -0.25294071 -0.20509346 77 175 74
0.014320864 -0.25164276 -0.20241897 77 175 74
0.022470113 -0.25054359 -0.2041284 77 175 74
0.0042508282 -0.24058166 -0.20009187 77 175 74
0.0057398248 -0.23529597 -0.2142268 77 175 74
-0.0038736523 -0.2373028 -0.20727378 77 175 74
0.0060484051 -0.24565651 -0.20708174 77 175 74
-0.0018536285 -0.24567263 -0.20240146 77 175 74
0.0021961597 -0.24243028 -0.20806503 77 175 74
0.0044061327 -0.23567699 -0.20016667 77 175 74
0.0017163503 -0.24519467 -0.20300101 77 175 74
-0.0017546221 -0.24640773 -0.20205525 77 175 74
-0.0012358547 -0.23964773 -0.2014606 77 175 74
0.0064421422 -0.24405685 -0.20289078 77 175 74
-0.0031941179 -0.23712169 -0.20680982 0 255 248
-0.0083115306 -0.23782013 -0.20049474 77 175 74
-0.0034284138 -0.24652021 -0.20737103 77 175 74
-0.004401518 -0.24329256 -0.21142763 0 255 248
-0.0050875922 -0.24822819 -0.20198716 77 175 74
0.016448917 -0.24753293 -0.19999389 77 175 74
0.015399452 -0.24596393 -0.21101105 77 175 74
0.019723229 -0.2474677 -0.19985254 77 175 74
0.011992883 -0.23787816 -0.20772047 77 175 74
0.0093804691 -0.24253461 -0.20757276 77 175 74
0.020462293 -0.23502533 -0.20286439 77 175 74
0.010977767 -0.24548665 -0.20594309 77 175 74
0.018980179 -0.24205115 -0.20793985 77 175 74
0.017523197 -0.23862098 -0.20464909 77 175 74
0.0078736348 -0.24691002 -0.20021814 77 175 74
0.011163057 -0.23543203 -0.20048891 77 175 74
0.017510246 -0.25010821 -0.19937702 77 175 74
0.018298006 -0.24615282 -0.20862062 77 175 74
0.018920163 -0.24448463 -0.21060301 77 175 74
0.020987969 -0.24101004 -0.21018572 77 175 74
0.023770276 -0.24715075 -0.21234454 77 175 74
0.029010307 -0.24769931 -0.20849825 77 175 74
0.033164557 -0.24597332 -0.20140715 77 175 74
0.023007885 -0.2451697 -0.20869941 77 175 74
0.022994766 -0.23728183 -0.20393719 77 175 74
0.031367343 -0.25085229 -0.20870072 77 175 74
0.036022969 -0.25178617 -0.20505981 77 175 74
0 0 0 0 0 0
0.024352828 -0.24360502 -0.20189543 77 175 74
0.033932548 -0.25130275 -0.20395789 77 175 74
0.023480784 -0.24014446 -0.20976128 77 175 74
0.025911201 -0.24298082 -0.19950482 77 175 74
0.0096844221 -0.23275673 -0.22078189 77 175 74
0.0021013983 -0.23453781 -0.20636304 77 175 74
0.0064004119 -0.23108529 -0.20691058 77 175 74
-0.0043417783 -0.22830917 -0.2010197 0 255 248
-0.00084045739 -0.22220166 -0.19996132 77 175 74
-0.0068891314 -0.23317876 -0.19961098 77 175 74
-0.0027616753 -0.23286769 -0.20520701 77 175 74
-0.0025415288 -0.2275449 -0.20485957 77 175 74
-0.00036024713 -0.23093684 -0.20686634 77 175 74
0.0042439625 -0.23388635 -0.20469578 77 175 74
0.0045489827 -0.22166921 -0.20424138 77 175 74
0.0043457057 -0.23468643 -0.21387808 77 175 74
0.0029953895 -0.22172163 -0.20159307 77 175 74
0.004212569 -0.22531816 -0.20698215 77 175 74
0.0061790249 -0.22470279 -0.20812848 77 175 74
0 0 0 0 0 0
0.015751777 -0.22853868 -0.20904537 77 175 74
0.014400458 -0.23125631 -0.20934984 77 175 74
0.016476072 -0.22781734 -0.20633934 77 175 74
0.018938644 -0.22235259 -0.19959338 77 175 74
0.02259724 -0.23405352 -0.20464759 77 175 74
0.0073961676 -0.22980504 -0.2058716 77 175 74
0.016909111 -0.23243324 -0.21024148 77 175 74
0.017493028 -0.22440234 -0.20239791 77 175 74
0.015788333 -0.23226158 -0.20062086 77 175 74
0.016660744 -0.21946795 -0.19955631 77 175 74
0.017298482 -0.23081668 -0.20296429 77 175 74
0.0094934348 -0.22120593 -0.2117265 77 175 74
0.010612284 -0.22553746 -0.20855629 77 175 74
0.011090664 -0.23213643 -0.21072751 77 175 74
0 0 0 0 0 0
0.0054967897 -0.21799101 -0.20225981 77 175 74
0.0087783746 -0.21301077 -0.20241784 77 175 74
0.010714553 -0.21560065 -0.19969532 77 175 74
0.012518284 -0.11463417 -0.2674354 255 0 114
0.021237219 -0.11509281 -0.26386386 255 0 114
0.00038047126 -0.12428805 -0.26310754 255 0 114
0 0 0 0 0 0
0.019079201 -0.1161027 -0.2642636 255 0 114
0 0 0 0 0 0
-0.0017497218 -0.11001943 -0.27221403 255 0 114
0 0 0 0 0 0
0 0 0 0 0 0
0 0 0 0 0 0
0 0 0 0 0 0
0 0 0 0 0 0
-0.0036205254 -0.13933678 -0.23102826 255 0 114
0.030528162 -0.1160726 -0.22156671 255 0 114
0.021488711 -0.11672492 -0.19992352 255 0 114
0 0 0 0 0 0
0 0 0 0 0 0
0.028733667 -0.12025864 -0.21518466 255 0 114
0.028004188 -0.11982249 -0.23369423 255 0 114
0 0 0 0 0 0
0 0 0 0 0 0
0.0098800808 -0.1360292 -0.2217149 255 0 114
0.021357261 -0.11846972 -0.20673476 255 0 114
0 0 0 0 0 0
0 0 0 0 0 0
0 0 0 0 0 0
0 0 0 0 0 0
0 0 0 0 0 0
0 0 0 0 0 0
0 0 0 0 0 0
0 0 0 0 0 0
0 0 0 0 0 0
0 0 0 0 0 0
0 0 0 0 0 0
0 0 0 0 0 0
0 0 0 0 0 0
0 0 0 0 0 0
0 0 0 0 0 0
0 0 0 0 0 0
0 0 0 0 0 0
0 0 0 0 0 0
0 0 0 0 0 0
0 0 0 0 0 0
0 0 0 0 0 0
0.033119146 -0.087992378 -0.20093447 255 0 114
0.039734945 -0.090717115 -0.20915778 255 0 114
0 0 0 0 0 0
0.037532005 -0.082109176 -0.20439808 255 0 114
0.029782668 -0.087713599 -0.19921952 255 0 114
0.0154321 -0.049887568 -0.20295532 255 0 114
0 0 0 0 0 0
0 0 0 0 0 0
0 0 0 0 0 0
-0.0046793898 -0.30243737 -0.1888818 0 255 248
0 0 0 0 0 0
0 0 0 0 0 0
0 0 0 0 0 0
0 0 0 0 0 0
0 0 0 0 0 0
0 0 0 0 0 0
0 0 0 0 0 0
0.013288208 -0.31837571 -0.14257668 0 0 68
-0.0054903007 -0.29830641 -0.18725437 0 255 248
0.023970598 -0.30930746 -0.15154807 255 183 156
0.02562543 -0.30314142 -0.14759459 255 183 156
0.028002076 -0.31579363 -0.1609696 255 183 156
0 0 0 0 0 0
0 0 0 0 0 0
0 0 0 0 0 0
0 0 0 0 0 0
0 0 0 0 0 0
0 0 0 0 0 0
0 0 0 0 0 0
0 0 0 0 0 0
0 0 0 0 0 0
0 0 0 0 0 0
0 0 0 0 0 0
0.046378259 -0.33886802 -0.11590958 0 0 68
0.04388034 -0.29723096 -0.076126836 0 0 68
0.032411706 -0.33739918 -0.13328838 0 0 68
0.048536126 -0.31932381 -0.093526438 0 0 68
0.05101084 -0.3254101 -0.095158376 0 0 68
0.04375552 -0.30756783 -0.086664505 0 0 68
0.043330699 -0.33012131 -0.11043112 0 0 68
0.013430325 -0.30328274 -0.12583761 0 0 68
0.019335356 -0.31590509 -0.12984663 0 0 68
0 0 0 0 0 0
0.051278409 -0.33601224 -0.10348479 0 0 68
0.053118017 -0.33530343 -0.1030881 0 0 68
0.033748765 -0.30277681 -0.095375866 0 0 68
0.031852581 -0.33821136 -0.13617298 0 0 68
0.037296396 -0.30527526 -0.094551399 0 0 68
0.014848795 -0.30039582 -0.12948704 255 183 156
0.026371446 -0.32620707 -0.13226779 0 0 68
0.024943637 -0.32945737 -0.1363301 0 0 68
0.034122817 -0.30886534 -0.10325588 0 0 68
0 0 0 0 0 0
0.057371847 -0.35472015 -0.11345349 0 0 68
0 0 0 0 0 0
0 0 0 0 0 0
0 0 0 0 0 0
0 0 0 0 0 0
0 0 0 0 0 0
0.063530713 -0.3500264 -0.10189617 0 0 68
0.061200086 -0.33517382 -0.089254141 0 0 68
0.063693322 -0.35445866 -0.10522958 0 0 68
0.059030864 -0.34227854 -0.099960275 0 0 68
0.054985892 -0.33655927 -0.10102595 0 0 68
0 0 0 0 0 0
0 0 0 0 0 0
0 0 0 0 0 0
0 0 0 0 0 0
0.06150654 -0.34250662 -0.097145967 0 0 68
0 0 0 0 0 0
0 0 0 0 0 0
0.054293673 -0.31721401 -0.081891172 0 0 68
0 0 0 0 0 0
0 0 0 0 0 0
0 0 0 0 0 0
0 0 0 0 0 0
0.015554186 -0.27110881 -0.18320988 255 183 156
0.01081652 -0.26845673 -0.18457659 77 175 74
0.017167613 -0.26853457 -0.18532787 77 175 74
0.0050847386 -0.28781778 -0.19460548 0 0 68
0.0063076457 -0.27264372 -0.1814833 77 175 74
-0.0026560659 -0.26896769 -0.19014123 77 175 74
0.012929683 -0.26891392 -0.17848925 77 175 74
0.014288382 -0.2686685 -0.17893758 255 183 156
0.0045236927 -0.27230796 -0.18467386 77 175 74
0.0081118084 -0.2681585 -0.190615 77 175 74
0.0091155637 -0.27101666 -0.1862115 77 175 74
0.014116107 -0.2661958 -0.17479144 255 183 156
0 0 0 0 0 0
0.024341023 -0.26969191 -0.18802865 255 183 156
0.0038079335 -0.25815445 -0.18953533 77 175 74
-0.006115186 -0.25625828 -0.19903216 77 175 74
-0.0010809697 -0.26550522 -0.18977536 77 175 74
0.0034853737 -0.26379731 -0.18670875 77 175 74
-0.0022360256 -0.2653881 -0.185637 77 175 74
0.0023853502 -0.26427349 -0.19538318 77 175 74
-0.00052011863 -0.26206192 -0.19193661 77 175 74
0.0021884791 -0.25537381 -0.19072309 77 175 74
-0.0033158509 -0.2519781 -0.19450115 77 175 74
0.00043487834 -0.26378724 -0.18870693 77 175 74
0.0030141894 -0.25658301 -0.1949213 77 175 74
0.0013746915 -0.26418221 -0.18369913 77 175 74
-0.00056400965 -0.25383288 -0.18382983 77 175 74
-0.0045092693 -0.25528461 -0.18980098 77 175 74
-0.001371905 -0.25130525 -0.19767837 77 175 74
0.016160943 -0.26218426 -0.19300236 77 175 74
0.020937115 -0.25070721 -0.18925443 77 175 74
0.012101006 -0.25516859 -0.18693891 77 175 74
0.02108602 -0.25522825 -0.19735876 77 175 74
0.0099027371 -0.25869545 -0.18860036 77 175 74
0.021632224 -0.25629723 -0.19446619 77 175 74
0.012345593 -0.26106876 -0.18979913 77 175 74
0.020043463 -0.25309807 -0.1844331 77 175 74
0.015725376 -0.25459716 -0.18896723 77 175 74
0.010795224 -0.26428619 -0.18471132 77 175 74
0.017449955 -0.25207242 -0.19475409 77 175 74
0.010045697 -0.25187293 -0.18408638 77 175 74
0.010972545 -0.26510444 -0.18417366 77 175 74
0.018006539 -0.25609523 -0.19793336 77 175 74
0.016565247 -0.26102149 -0.19492984 77 175 74
0.017516835 -0.25745994 -0.19632827 77 175 74
0.0030298482 -0.23533276 -0.19146006 77 175 74
0.0045147152 -0.23977841 -0.19895217 77 175 74
-0.0080886316 -0.24475765 -0.18982217 77 175 74
0.0001625523 -0.24044457 -0.19886574 77 175 74
0.0041394313 -0.23591129 -0.19175911 77 175 74
0.00013514326 -0.23950949 -0.19897644 77 175 74
-0.00055805588 -0.24752979 -0.18975851 77 175 74
0.00019655576 -0.23804928 -0.18675499 77 175 74
-0.0044730632 -0.23799194 -0.19813828 77 175 74
0.0053242571 -0.23704079 -0.19480871 77 175 74
0.0099475607 -0.23889582 -0.1963878 77 175 74
0.020703716 -0.23536445 -0.19431649 77 175 74
0.019809518 -0.24548887 -0.18571636 77 175 74
0.021522103 -0.2383519 -0.19523357 77 175 74
0.011583074 -0.24865662 -0.18486148 77 175 74
0.01189037 -0.24786536 -0.18973877 77 175 74
0.014826667 -0.24941404 -0.18981871 77 175 74
0.01525073 -0.24126072 -0.19023487 77 175 74
0.01763743 -0.24184166 -0.19065751 77 175 74
0.011678819 -0.24737291 -0.19840518 77 175 74
0.013806508 -0.24564634 -0.19570839 77 175 74
-0.0022663393 -0.25704286 -0.17747001 77 175 74
-0.002920425 -0.25622657 -0.18110262 77 175 74
0.0060078274 -0.26041198 -0.17474449 77 175 74
-0.0050607906 -0.2508854 -0.17658591 77 175 74
-0.0046530725 -0.25273031 -0.1790915 77 175 74
0 0 0 0 0 0
0.0024774387 -0.26166564 -0.18345444 77 175 74
0.0008643989 -0.25882912 -0.18319274 77 175 74
0.0051796599 -0.25168157 -0.1703746 77 175 74
0.005973401 -0.254412 -0.17730305 77 175 74
0.0043205991 -0.25471902 -0.17013477 77 175 74
0.0037407621 -0.25666749 -0.17279379 77 175 74
-0.00070417096 -0.25242755 -0.17239718 77 175 74
-0.00059808802 -0.25433764 -0.17364483 0 255 248
0.011566815 -0.26361629 -0.17688219 77 175 74
0.013684374 -0.25976214 -0.18207923 77 175 74
0.016487215 -0.2580817 -0.17009267 255 183 156
0.016053881 -0.2622861 -0.17990725 77 175 74
0.014846655 -0.25841925 -0.17453173 77 175 74
0.011475303 -0.26413721 -0.17070451 77 175 74
0.010844977 -0.26317167 -0.18145283 77 175 74
0.0071258987 -0.25972661 -0.16963391 255 183 156
0.010079745 -0.25287789 -0.17299522 77 175 74
0.011275675 -0.25498754 -0.17198397 77 175 74
0.015289639 -0.26108041 -0.17198107 77 175 74
0.0083487416 -0.25248608 -0.16870017 77 175 74
0.0099175572 -0.25476497 -0.17595196 77 175 74
0.01028329 -0.25349867 -0.1815359 77 175 74
0.014604989 -0.26037151 -0.18094733 77 175 74
0.0086459471 -0.2630482 -0.17728159 77 175 74
0.015624937 -0.26316279 -0.18130544 77 175 74
-0.00080076716 -0.24204126 -0.17746101 77 175 74
-0.0060019782 -0.24672894 -0.17740297 77 175 74
0.0049630189 -0.23658074 -0.18052042 77 175 74
-0.0053322655 -0.23806392 -0.18192565 77 175 74
-0.0013423439 -0.24200253 -0.17774072 77 175 74
0.00014070621 -0.24559987 -0.17469357 77 175 74
0.002879255 -0.24421981 -0.17777751 77 175 74
0.00071437028 -0.24647966 -0.17307377 77 175 74
0.0021111583 -0.23848602 -0.17407571 77 175 74
-0.0052598855 -0.2415508 -0.17649493 77 175 74
0.001377744 -0.24556021 -0.17159255 77 175 74
-0.0064731725 -0.24715956 -0.17363682 77 175 74
0.0060764439 -0.23737878 -0.17412485 77 175 74
0.00075005036 -0.23633492 -0.17682131 77 175 74
-0.0076527069 -0.24405728 -0.16979355 77 175 74
0.0016656094 -0.24590838 -0.17729686 77 175 74
0.015894119 -0.24023233 -0.18333888 77 175 74
0.010437981 -0.23529582 -0.17521144 77 175 74
0.014351315 -0.24287154 -0.17079714 77 175 74
0.020873237 -0.23576497 -0.17061387 77 175 74
0.0096443463 -0.24579315 -0.17745227 77 175 74
0.0095098475 -0.24080667 -0.17873478 77 175 74
0.019153709 -0.24179317 -0.17852636 77 175 74
0.011622137 -0.24771601 -0.175108 77 175 74
0.011485778 -0.24402507 -0.18134369 77 175 74
0.020218195 -0.25011709 -0.16917704 77 175 74
0.015461219 -0.23503192 -0.17813119 77 175 74
0.021690711 -0.24676129 -0.17252377 77 175 74
0.0154775 -0.24984984 -0.17349733 77 175 74
0.019890901 -0.2495555 -0.16947873 255 183 156
0.020403663 -0.23709621 -0.16850977 77 175 74
0.014044719 -0.24876493 -0.18206304 77 175 74
0.01847652 -0.24479379 -0.17647089 77 175 74
0.022540426 -0.24993964 -0.17199367 77 175 74
0.034417387 -0.25369811 -0.19244653 77 175 74
0.032631215 -0.25390062 -0.1927693 77 175 74
0.034062169 -0.25394887 -0.19460657 77 175 74
0.026268387 -0.26047879 -0.18545112 255 183 156
0.030549342 -0.25750384 -0.19017614 255 183 156
0.027700022 -0.25700462 -0.18736561 77 175 74
0.028570982 -0.25367528 -0.18568109 77 175 74
0.028586693 -0.24705249 -0.18882592 77 175 74
0.036990609 -0.25011957 -0.19449846 77 175 74
0.024607239 -0.23633821 -0.19001868 77 175 74
0.025414821 -0.23997876 -0.19575524 77 175 74
0.031864055 -0.23700555 -0.19411428 77 175 74
0.035538744 -0.24910909 -0.19064784 77 175 74
0 0 0 0 0 0
0 0 0 0 0 0
0.037286632 -0.24160483 -0.1911227 77 175 74
0.024037693 -0.23906933 -0.18459134 77 175 74
0.033010904 -0.24531938 -0.18387707 77 175 74
0.034821484 -0.23984458 -0.19127356 77 175 74
0.03769939 -0.24720739 -0.18883424 77 175 74
0.029990695 -0.2450114 -0.18957689 77 175 74
0.022883801 -0.24834284 -0.18651928 77 175 74
0.029619684 -0.23783705 -0.18418042 77 175 74
0.036632817 -0.24822506 -0.19909859 77 175 74
0.039200179 -0.24661478 -0.19027489 77 175 74
0.038545832 -0.24430138 -0.19217829 77 175 74
0.028342225 -0.25224546 -0.18101005 77 175 74
0.023345158 -0.25816786 -0.18189749 255 183 156
0.025983863 -0.23804054 -0.17368469 77 175 74
0.035546139 -0.24015248 -0.18193166 77 175 74
0.026828894 -0.24564984 -0.17414963 77 175 74
0.023805887 -0.23842733 -0.17173018 77 175 74
0.023217635 -0.23897366 -0.18333498 77 175 74
0.026212428 -0.23692787 -0.17112827 77 175 74
0.028149633 -0.2366094 -0.1739081 77 175 74
0.023952175 -0.24925616 -0.17626247 77 175 74
0.031732541 -0.23880164 -0.17488383 255 183 156
0.032577533 -0.24430545 -0.18129671 77 175 74
0.036111079 -0.24157979 -0.1826074 77 175 74
0.030715721 -0.24456266 -0.17752762 77 175 74
0.023348071 -0.24522083 -0.16990754 77 175 74
0.02926847 -0.24335738 -0.17484055 77 175 74
0.028609529 -0.24725534 -0.17878418 255 183 156
0.038962916 -0.23704134 -0.18347609 77 175 74
-0.001763319 -0.27308983 -0.15600212 0 0 68
0.00020021776 -0.27845219 -0.16000339 255 183 156
-0.0047667446 -0.27282164 -0.16071364 0 255 248
0.038160052 -0.29562724 -0.15667994 255 183 156
0.03216958 -0.28636432 -0.14035362 255 183 156
0.041304681 -0.29206207 -0.15937251 255 183 156
0.0046522021 -0.25287247 -0.16290483 0 0 68
0.0056155832 -0.25524268 -0.16779171 77 175 74
0.010290884 -0.25360769 -0.15967093 77 175 74
0.014133804 -0.25075278 -0.16312942 77 175 74
0.0087610958 -0.25789198 -0.1633642 77 175 74
0.015593487 -0.25285217 -0.16529092 255 183 156
0.010802505 -0.25160289 -0.16076089 77 175 74
0.00940789 -0.25804034 -0.16313739 77 175 74
0.0035672095 -0.2471467 -0.15985046 77 175 74
0.00058393402 -0.24272522 -0.16507804 77 175 74
0.00081530533 -0.24753018 -0.16250867 77 175 74
0.001359268 -0.24366139 -0.16079184 77 175 74
-0.0054639257 -0.23781838 -0.16772373 77 175 74
-0.00068546302 -0.25035441 -0.16740111 0 255 248
0.0042474023 -0.24168733 -0.16094045 77 175 74
0.0029544292 -0.24054742 -0.15648368 77 175 74
-0.0046028481 -0.23994897 -0.16293436 77 175 74
-0.00041116824 -0.2432989 -0.16463792 77 175 74
0.0069808415 -0.24924055 -0.16362377 77 175 74
0.001187549 -0.24781513 -0.166473 77 175 74
0.0050256434 -0.2448625 -0.15626825 77 175 74
0.012589206 -0.24310748 -0.15462378 77 175 74
0.008793232 -0.2368561 -0.1678952 77 175 74
0.0091873733 -0.23841336 -0.16480023 77 175 74
0.012509481 -0.24721175 -0.16091758 77 175 74
0.0075714588 -0.24307328 -0.15530121 255 183 156
0.012922513 -0.24681549 -0.15698279 77 175 74
0.015790377 -0.2354265 -0.1649254 77 175 74
0.011221859 -0.24379095 -0.1626789 77 175 74
0.011980276 -0.24407232 -0.16538157 77 175 74
0.011508559 -0.23831582 -0.1658565 77 175 74
0 0 0 0 0 0
0.0095599648 -0.23613656 -0.14741178 0 0 68
0.023537435 -0.24759535 -0.16554797 255 183 156
0.024103288 -0.23722182 -0.16560388 77 175 74
0 0 0 0 0 0
0.0051866309 -0.22895467 -0.18875036 77 175 74
0.0010871572 -0.23288526 -0.18552631 77 175 74
-0.0036166911 -0.21937436 -0.19297835 255 183 156
-0.0015116821 -0.22697887 -0.18737298 77 175 74
-0.0037519911 -0.22273867 -0.19392101 77 175 74
-0.0036708638 -0.22881486 -0.18857966 77 175 74
-0.0020873067 -0.22149514 -0.19431505 77 175 74
0.0041826083 -0.22259071 -0.19226027 77 175 74
-0.0058804285 -0.22215468 -0.18910095 77 175 74
-0.0050598602 -0.22417323 -0.19294068 77 175 74
-0.00041202467 -0.22710392 -0.19250549 77 175 74
0.0039255493 -0.23036613 -0.19469604 77 175 74
0.0060334243 -0.23237617 -0.18752591 77 175 74
-0.007425352 -0.23283842 -0.19873919 77 175 74
-0.0080724806 -0.2321443 -0.19733863 0 255 248
0.0076454785 -0.23276764 -0.19683121 77 175 74
0.01176202 -0.2319407 -0.19401498 77 175 74
0.01941729 -0.23042595 -0.19404228 77 175 74
0.019706206 -0.23238721 -0.19911414 77 175 74
0.020251269 -0.23303908 -0.19427566 77 175 74
0.017124683 -0.2342709 -0.19776428 77 175 74
0.0079886718 -0.22156589 -0.19800968 77 175 74
0.011311316 -0.22143006 -0.19880554 77 175 74
0.0094516436 -0.21983005 -0.19581132 77 175 74
0.010776891 -0.22229657 -0.1961382 77 175 74
0.0083419392 -0.22536284 -0.19706671 77 175 74
0.012871743 -0.22341844 -0.19373903 77 175 74
0.019908782 -0.2214241 -0.19364251 77 175 74
0.01971367 -0.22460224 -0.19877808 77 175 74
0 0 0 0 0 0
0 0 0 0 0 0
0.012897768 -0.23327608 -0.19009806 77 175 74
0.010172069 -0.23426561 -0.19077317 77 175 74
0.012493747 -0.22118618 -0.18846901 77 175 74
0.013052357 -0.22450741 -0.18599243 77 175 74
0.014390923 -0.22327615 -0.19103375 77 175 74
0.015807625 -0.22493996 -0.18377873 77 175 74
0.0038807774 -0.21498461 -0.19669813 255 183 156
-0.0032302788 -0.21090949 -0.18460403 0 0 68
0.0055675376 -0.21708058 -0.19103338 77 175 74
0.0034282422 -0.21541305 -0.18361422 77 175 74
-0.0083797174 -0.21908383 -0.1853314 77 175 74
0.0067453552 -0.21660514 -0.19337681 77 175 74
0.0097359689 -0.21385632 -0.19328682 77 175 74
0 0 0 0 0 0
0.015900357 -0.21919204 -0.19216941 77 175 74
0.012067765 -0.21031751 -0.19731447 77 175 74
0.012410261 -0.2091509 -0.19138975 77 175 74
0.016172979 -0.21566948 -0.1923178 77 175 74
0.0080587035 -0.21785948 -0.19864574 77 175 74
0.011073682 -0.21260338 -0.18581644 77 175 74
0.013288331 -0.20930701 -0.1905105 77 175 74
0.018670244 -0.21830365 -0.19383171 77 175 74
0.018575601 -0.21106169 -0.1871787 77 175 74
0.015137157 -0.21245307 -0.18531899 77 175 74
0.0047560595 -0.23150723 -0.17518677 77 175 74
-0.0018476148 -0.22364981 -0.17871104 77 175 74
0.0037823606 -0.23177691 -0.17774282 77 175 74
-0.0049236887 -0.22343664 -0.17795883 77 175 74
-0.0067382036 -0.2342903 -0.18212348 77 175 74
-0.00086725655 -0.22581291 -0.1801295 77 175 74
0.00046190957 -0.23382655 -0.17466827 77 175 74
-0.0018978057 -0.23353969 -0.17182787 77 175 74
0.0067563746 -0.22640568 -0.1739559 77 175 74
0.0044781547 -0.23213917 -0.16945331 77 175 74
0.00030287393 -0.23283319 -0.17122836 77 175 74
-0.0029676892 -0.22956848 -0.17122838 77 175 74
-0.0062331501 -0.22685292 -0.17520171 77 175 74
-0.0074340003 -0.22276497 -0.18342219 77 175 74
-0.0019029145 -0.21974327 -0.17892538 77 175 74
-0.0049361638 -0.22142671 -0.18071938 77 175 74
-0.0064670439 -0.23126072 -0.18285303 77 175 74
-0.0078941276 -0.22710875 -0.17952508 77 175 74
-0.0041028671 -0.23287341 -0.1741125 77 175 74
0.01619784 -0.22174756 -0.1784924 77 175 74
0.021096228 -0.22892572 -0.17765525 77 175 74
0.020175908 -0.22911347 -0.17676717 77 175 74
0.0082965316 -0.23464561 -0.17506793 77 175 74
0.015384704 -0.23141949 -0.1708737 77 175 74
0.015710307 -0.23460302 -0.17609286 77 175 74
0.020084763 -0.23247407 -0.18167835 77 175 74
0.0097545423 -0.2217935 -0.18123965 77 175 74
0.01327438 -0.22961067 -0.16829182 77 175 74
0.014211536 -0.2262377 -0.18352325 77 175 74
0.008228559 -0.22616631 -0.17183442 77 175 74
0.016037161 -0.22570975 -0.17961183 77 175 74
0.018919706 -0.23282184 -0.17060047 77 175 74
0.012049806 -0.23040573 -0.18058339 77 175 74
0 0 0 0 0 0
0.017115392 -0.21537602 -0.18264703 77 175 74
0.011652688 -0.21819261 -0.1787187 77 175 74
0 0 0 0 0 0
0.02635356 -0.22398186 -0.18900813 77 175 74
0.024182241 -0.22816892 -0.19346233 77 175 74
0.027382296 -0.22850882 -0.19117945 77 175 74
0.030802814 -0.23441747 -0.18807493 77 175 74
0.023877867 -0.23368804 -0.19379367 77 175 74
0.02305855 -0.2291005 -0.19696695 77 175 74
