ply
format ascii 1.0
comment PCL generated
element vertex 1206
property float x
property float y
property float z
property uchar red
property uchar green
property uchar blue
element camera 0
property float view_px
property float view_py
property float view_pz
property float x_axisx
property float x_axisy
property float x_axisz
property float y_axisx
property float y_axisy
property float y_axisz
property float z_axisx
property float z_axisy
property float z_axisz
property float focal
property float scalex
property float scaley
property float centerx
property float centery
property int viewportx
property int viewporty
property float k1
property float k2
end_header
-0.065666392 -0.13413797 0.13117284 255 127 0
-0.056742661 -0.13226722 0.13154371 255 127 0
-0.048828583 -0.13537382 0.13354301 228 26 28
0 0 0 0 0 0
0 0 0 0 0 0
-0.049560688 -0.11746251 0.13267456 228 26 28
0 0 0 0 0 0
-0.018875338 -0.10150582 0.15015921 228 26 28
0 0 0 0 0 0
0 0 0 0 0 0
-0.032584142 -0.12060654 0.1875096 55 126 184
0 0 0 0 0 0
-0.031442422 -0.12407471 0.18570071 55 126 184
-0.0086913612 -0.13065831 0.16632365 228 26 28
0 0 0 0 0 0
-0.018142132 -0.13957423 0.16612314 228 26 28
0 0 0 0 0 0
-0.032524645 -0.094431944 0.18585445 55 126 184
-0.012703331 -0.10501273 0.16053306 228 26 28
-0.032301303 -0.090265401 0.17796932 228 26 28
-0.014582212 -0.089410931 0.16147754 55 126 184
-0.017217008 -0.090035155 0.17201796 228 26 28
-0.046394397 -0.078469731 0.13674556 255 255 180
-0.016123433 -0.064800344 0.15635604 228 26 28
0 0 0 0 0 0
-0.026572669 -0.043882143 0.13941041 228 26 28
-0.02308581 -0.031891368 0.14697413 228 26 28
-0.026788797 -0.027983652 0.13768078 228 26 28
-0.018419182 -0.044154126 0.15334314 228 26 28
-0.023447104 -0.051763795 0.14257845 228 26 28
-0.037382845 -0.057446167 0.17471777 55 126 184
0 0 0 0 0 0
-0.011268804 -0.059491456 0.17210044 55 126 184
-0.013887802 -0.069528542 0.15933627 228 26 28
0 0 0 0 0 0
-0.014474144 -0.085523225 0.16154735 55 126 184
0 0 0 0 0 0
0 0 0 0 0 0
0 0 0 0 0 0
0 0 0 0 0 0
0 0 0 0 0 0
0 0 0 0 0 0
0 0 0 0 0 0
-0.062370796 -0.10620844 0.20206834 55 126 184
0 0 0 0 0 0
0 0 0 0 0 0
0 0 0 0 0 0
0 0 0 0 0 0
0 0 0 0 0 0
0 0 0 0 0 0
0 0 0 0 0 0
0 0 0 0 0 0
0.016953645 -0.5127809 0.042594273 255 255 51
0.02839826 -0.51268953 0.0079025086 255 255 51
-0.001236498 -0.51362675 0.023215102 255 255 51
0.037268262 -0.51315117 0.011017454 255 255 51
-0.0011799562 -0.51402891 0.035996545 255 255 51
0.019420296 -0.51290566 0.036590748 255 255 51
-0.0013874921 -0.51371533 0.011214608 255 255 51
0.039352588 -0.51236308 0.038094558 255 255 51
0.029895328 -0.51241124 0.05810326 255 255 51
0.10891663 -0.50578755 0.022868287 255 255 51
0.11627866 -0.50813454 0.043154977 77 175 74
0.098257542 -0.51013649 0.020899519 255 255 51
0.11175355 -0.50913316 0.053830825 255 255 51
0.10784835 -0.51437414 0.010269 77 175 74
0.11216476 -0.47345412 0.018438667 77 175 74
0.090441458 -0.51024777 0.062902831 255 255 51
0.098052308 -0.51020575 0.024016805 255 255 51
0.076087579 -0.51148754 0.0038556703 255 255 51
0.11041477 -0.45502278 0.015860245 77 175 74
0.10227767 -0.45631528 0.0027828591 77 175 74
0.10769237 -0.43288684 0.011359644 77 175 74
0.10480268 -0.41493961 0.0072725955 77 175 74
0.11279631 -0.43865573 0.020085404 77 175 74
0.014161084 -0.51175815 0.079799987 255 255 51
0.057200991 -0.50978881 0.11707485 255 255 51
0.07493367 -0.50987494 0.11862259 255 255 51
0.061852485 -0.5099473 0.090691671 255 255 51
0.087349899 -0.50677341 0.12504023 55 126 184
0.059323758 -0.51070952 0.074340418 255 255 51
0.069710404 -0.51001996 0.095706366 255 255 51
0.11106323 -0.470018 0.11116017 55 126 184
0.093695439 -0.46218374 0.12012143 55 126 184
0.08430241 -0.50981051 0.068892986 255 255 51
0.10335571 -0.48040727 0.11490086 55 126 184
0.089832403 -0.50686175 0.12345076 55 126 184
0.10952132 -0.4236607 0.1093537 55 126 184
0.1227697 -0.49926284 0.037114684 77 175 74
0.12265082 -0.50190973 0.034808278 77 175 74
0.14861585 -0.49124622 0.054862861 77 175 74
0.12702478 -0.46833563 0.01712485 77 175 74
0.13705795 -0.42540586 0.063761078 77 175 74
0.13334823 -0.45630792 0.029869301 77 175 74
0.12771878 -0.41634086 0.048529625 77 175 74
0.13678618 -0.45101187 0.063773066 77 175 74
0.13401292 -0.40377125 0.060736109 77 175 74
0.13083492 -0.45508221 0.053151168 77 175 74
0.13591348 -0.43133396 0.062050294 77 175 74
0.12150199 -0.42974272 0.036660522 77 175 74
0.1606344 -0.49785224 0.096663304 55 126 184
0.16231422 -0.46155101 0.080601223 77 175 74
0.14376454 -0.48795757 0.07347358 77 175 74
0.1390612 -0.47929588 0.064610466 77 175 74
0.16667856 -0.46611023 0.091988914 55 126 184
0.14717838 -0.48987514 0.079489432 77 175 74
0.15707771 -0.49224541 0.069276541 77 175 74
0.14420559 -0.50532871 0.076747417 77 175 74
0.12862888 -0.50558662 0.065275028 77 175 74
0.14115091 -0.50433284 0.069946326 77 175 74
0.13168754 -0.5044499 0.068443246 255 255 51
0.15811203 -0.48343015 0.097103067 55 126 184
0.14051768 -0.42407417 0.069782376 77 175 74
0.15827528 -0.41458145 0.073974505 77 175 74
0 0 0 0 0 0
0.14079574 -0.42788425 0.087327816 55 126 184
0.14432779 -0.45603707 0.086015403 55 126 184
0.14134707 -0.41191781 0.071568489 77 175 74
0.16345575 -0.40267178 0.084494188 77 175 74
0.14721201 -0.41891241 0.083181165 77 175 74
0.15468743 -0.44280609 0.067083776 77 175 74
0.10591841 -0.35786572 0.013070506 77 175 74
0.11216044 -0.39331263 0.021235425 77 175 74
0.10509152 -0.34048975 0.011615582 77 175 74
0.11583016 -0.38085568 0.02888621 77 175 74
0.11233447 -0.34292933 0.024623862 77 175 74
0.010434329 -0.29603666 0.044701487 166 86 40
0 0 0 0 0 0
0.014498753 -0.29600477 0.0099515999 166 86 40
0 0 0 0 0 0
0 0 0 0 0 0
0.030911336 -0.29606786 0.006068659 166 86 40
0 0 0 0 0 0
0 0 0 0 0 0
-0.00080117479 -0.29630312 0.03379209 166 86 40
0.019287337 -0.28367627 0.054951973 166 86 40
0.032214258 -0.29540908 0.030867139 166 86 40
0 0 0 0 0 0
0.10283516 -0.31408474 0.0080301296 77 175 74
0.11000224 -0.29904684 0.020900024 77 175 74
0 0 0 0 0 0
0.064032659 -0.29488996 0.020270087 166 86 40
0.082630455 -0.29396844 0.034939989 166 86 40
0.11908755 -0.32737294 0.0086674141 77 175 74
0.11384441 -0.32401326 0.027255975 77 175 74
0.10321096 -0.29528958 0.0096207699 77 175 74
0.11856295 -0.32063952 0.036536634 77 175 74
0.11691666 -0.32737908 0.033150122 77 175 74
0.080539435 -0.37917936 0.12434882 55 126 184
0.11727455 -0.39298204 0.1042726 55 126 184
0.10634337 -0.37708235 0.1096031 55 126 184
0 0 0 0 0 0
0.047683194 -0.29235026 0.10493252 166 86 40
0 0 0 0 0 0
0.029050251 -0.29232797 0.11128078 166 86 40
0 0 0 0 0 0
0.018762134 -0.28992835 0.12462895 166 86 40
-0.0036391679 -0.29508367 0.090847418 166 86 40
0.0010270244 -0.29427609 0.11137451 166 86 40
0.056739897 -0.29153535 0.097549669 166 86 40
0.055242263 -0.29198623 0.12328736 166 86 40
0.10934658 -0.31041032 0.10585392 55 126 184
0.080491938 -0.30722851 0.12168349 55 126 184
0.064848073 -0.29192847 0.108252 166 86 40
0.09072379 -0.30865768 0.11660695 55 126 184
0.064200975 -0.29116574 0.10592123 166 86 40
0.081143722 -0.29410961 0.12084482 55 126 184
0.10946701 -0.32741761 0.10616547 55 126 184
0.10323497 -0.29857358 0.10915172 55 126 184
0.135583 -0.39411232 0.063116059 77 175 74
0.12412952 -0.3983807 0.042347323 77 175 74
0.13242187 -0.37685257 0.058297817 77 175 74
0.1325995 -0.38332844 0.030879548 77 175 74
0.14757253 -0.36345944 0.058179077 77 175 74
0.12824596 -0.37668258 0.022756761 77 175 74
0.13872884 -0.3960557 0.041461341 77 175 74
0.15141219 -0.34933767 0.064067811 77 175 74
0.13564353 -0.3678692 0.035762005 77 175 74
0.13451406 -0.3469004 0.03425407 77 175 74
0.1235761 -0.3909454 0.014247834 77 175 74
0.14304486 -0.27792814 0.053570319 77 175 74
0.12331584 -0.32193244 0.043057457 77 175 74
0.12575185 -0.29544055 0.048934676 77 175 74
0.12482975 -0.3028211 0.020992007 77 175 74
0.11993926 -0.30670828 0.010831849 77 175 74
0.12226747 -0.32981247 0.013890905 77 175 74
0.13380706 -0.27755541 0.063545167 77 175 74
0.133994 -0.29524899 0.062839754 77 175 74
0.13960838 -0.32580754 0.044256892 77 175 74
0.13959955 -0.34386736 0.084205501 55 126 184
0.14511131 -0.37462252 0.08146663 77 175 74
0.15747222 -0.33680668 0.075151563 77 175 74
0.13793516 -0.34461102 0.068203792 77 175 74
0.13017046 -0.38504574 0.096463151 55 126 184
0.14153275 -0.36643797 0.07393045 77 175 74
0.16350305 -0.38553271 0.090466253 55 126 184
0.12972775 -0.38946173 0.096905872 55 126 184
0.13788186 -0.3398858 0.068234511 77 175 74
0.13980953 -0.36311996 0.072361484 77 175 74
0.14307725 -0.31552324 0.079539523 77 175 74
0.15449291 -0.27993608 0.073341019 77 175 74
0.14186575 -0.33166251 0.082299128 55 126 184
0.13692139 -0.29313949 0.089499734 55 126 184
0.13596064 -0.3019487 0.085320078 77 175 74
0.12510695 -0.29578936 0.068063267 77 175 74
0.14021544 -0.32813117 0.07274814 77 175 74
0.13762994 -0.32173741 0.068432137 77 175 74
0.005452205 -0.51173413 0.13886808 255 255 51
-0.0032994284 -0.5047372 0.17713846 228 26 28
-0.0020768037 -0.51168126 0.16947526 255 255 51
0.0085227117 -0.4238677 0.16687885 55 126 184
0.07241711 -0.45601067 0.13191554 55 126 184
0.07096827 -0.40141046 0.13015242 55 126 184
0.072742447 -0.48202631 0.13275556 55 126 184
0.038484704 -0.4144429 0.14924166 55 126 184
-0.0041539827 -0.50658327 0.17527623 228 26 28
6.6799454e-05 -0.51173103 0.13718952 255 255 51
0.022336464 -0.50650948 0.16279168 55 126 184
0.027756501 -0.40847659 0.15601258 55 126 184
0.038276996 -0.51021826 0.15162116 255 255 51
0.019851131 -0.4331955 0.16103801 55 126 184
0.05726181 -0.4177773 0.13901615 55 126 184
0.028214889 -0.49149635 0.15893923 55 126 184
0.072703242 -0.40416819 0.12964182 55 126 184
0.047422286 -0.45355576 0.14550911 55 126 184
0.02029861 -0.37408894 0.15786205 55 126 184
0.0010644412 -0.38115641 0.17012957 55 126 184
0.0044822297 -0.36605632 0.16766575 55 126 184
0.0022180881 -0.39651507 0.17007531 55 126 184
0.0022189687 -0.32562992 0.16740881 55 126 184
0.006452004 -0.29329741 0.14757761 166 86 40
0.023860188 -0.29593107 0.15317477 55 126 184
-0.0013427957 -0.39512232 0.17096703 55 126 184
0 0 0 0 0 0
0 0 0 0 0 0
0.039900478 -0.32547396 0.14504516 55 126 184
0.027007433 -0.29266101 0.13606724 166 86 40
0.057431515 -0.39436781 0.13754673 55 126 184
0.018288802 -0.29363462 0.15677412 55 126 184
-0.0023477576 -0.36887428 0.17070524 55 126 184
0.071298368 -0.31974238 0.12776154 55 126 184
0.03664355 -0.29266858 0.14640439 55 126 184
0.071168669 -0.37480551 0.12996845 55 126 184
0.00096887135 -0.21503028 0.031409614 0 101 255
-0.0027018043 -0.21445695 0.019797904 0 101 255
0.11486667 -0.2355032 0.0050206883 77 175 74
0.039411247 -0.1987018 0.023728488 255 127 0
0.011110027 -0.17251272 0.022783199 255 127 0
0.027887136 -0.18122847 0.0049078553 255 127 0
0.0095309457 -0.16647068 0.019624628 255 127 0
0.0088668419 -0.18766104 0.017169338 255 127 0
0.049278922 -0.17822559 0.049879387 255 127 0
0.013225614 -0.2097103 0.059347216 0 101 255
0.0039735613 -0.21130021 0.039356049 0 101 255
0 0 0 0 0 0
0.0031079105 -0.15136422 0.0082982844 255 127 0
0.044862207 -0.20772353 0.04863131 0 101 255
-0.0020640844 -0.21180825 0.026544508 0 101 255
0.0079623824 -0.2111679 0.018415658 0 101 255
0 0 0 0 0 0
0.02513114 -0.20873262 0.027129438 0 101 255
0.012626699 -0.20525447 0.022725502 255 127 0
0.10269796 -0.20071982 0.013231277 77 175 74
0.11123001 -0.15470244 0.030154465 77 175 74
0.0066998387 -0.27216986 0.12636675 166 86 40
0.023054635 -0.21279252 0.072867379 0 101 255
0 0 0 0 0 0
0.0049902345 -0.20940794 0.084104173 0 101 255
0.012189427 -0.20924571 0.089414649 0 101 255
0.037217576 -0.21213102 0.088479333 0 101 255
0 0 0 0 0 0
0.044158041 -0.20762263 0.072266407 0 101 255
0 0 0 0 0 0
0 0 0 0 0 0
0 0 0 0 0 0
0 0 0 0 0 0
0 0 0 0 0 0
0 0 0 0 0 0
0 0 0 0 0 0
0.01309849 -0.19778818 0.10427449 255 127 0
0.0095335599 -0.1850457 0.10939324 255 127 0
0.016824197 -0.20121194 0.10293375 255 127 0
0.0049665482 -0.20897034 0.10188048 0 101 255
0.012495254 -0.20879968 0.098315462 0 101 255
0.01400515 -0.20513017 0.10488598 255 127 0
0.012124932 -0.17266512 0.10389026 255 127 0
0.018612469 -0.15275425 0.10019585 255 127 0
0.010803688 -0.1742423 0.10578683 255 127 0
0.00089544314 -0.15998356 0.11047173 255 127 0
0.031554479 -0.16531019 0.097413152 255 127 0
0.12512578 -0.25918031 0.049023438 77 175 74
0.14351924 -0.25862932 0.054951962 77 175 74
0 0 0 0 0 0
0.12467331 -0.25509948 0.050009463 77 175 74
0.12049852 -0.1707859 0.044623736 77 175 74
0.14083914 -0.17705333 0.053272996 77 175 74
0.14070186 -0.18531257 0.053109184 77 175 74
0.13515782 -0.17378624 0.042928301 77 175 74
0.14419179 -0.16774835 0.060185924 77 175 74
0.14130811 -0.1904473 0.053379308 77 175 74
0.15499477 -0.24221401 0.090358399 55 126 184
0.13794175 -0.22379242 0.074327774 77 175 74
0.14545089 -0.24344961 0.086894847 77 175 74
0.15175477 -0.27030462 0.092490815 55 126 184
0.135243 -0.22817819 0.067630917 77 175 74
0.13596044 -0.24028018 0.069569394 77 175 74
0.15970929 -0.25524023 0.082555674 77 175 74
0.14103228 -0.18077518 0.080538996 77 175 74
0.13500482 -0.1754486 0.070340991 77 175 74
0.14928943 -0.16449477 0.068367064 77 175 74
0.13884684 -0.17983226 0.076411843 77 175 74
0.15462977 -0.1975116 0.088504292 55 126 184
0.1569443 -0.20941636 0.088058777 55 126 184
0.14073141 -0.16591012 0.08102794 77 175 74
0.1550131 -0.17220831 0.077402823 77 175 74
0.015728343 -0.11019868 0.033313818 255 127 0
0.010307359 -0.088545434 0.024085758 255 127 0
0.049305979 -0.12453344 0.059086069 255 127 0
0.011732382 -0.12282788 0.025762368 255 127 0
0.04494828 -0.12225465 0.04161936 255 127 0
0 0 0 0 0 0
0.015986813 -0.13584095 0.03124184 255 127 0
0.048651386 -0.11115641 0.054201208 255 127 0
0 0 0 0 0 0
0.0062211105 -0.097707905 0.01688619 255 127 0
0 0 0 0 0 0
0.11669452 -0.089089006 0.042446982 77 175 74
0.096146926 -0.14332645 0.004131814 77 175 74
0.10621388 -0.092011988 0.023490837 77 175 74
0.11252829 -0.095848002 0.034786869 77 175 74
0.11354519 -0.10952795 0.0079984982 77 175 74
0.010777582 -0.079668783 0.014055441 255 255 180
0 0 0 0 0 0
0 0 0 0 0 0
0.03627653 -0.082711153 0.022439603 255 127 0
0.050277218 -0.058067139 0.018232122 255 255 180
0 0 0 0 0 0
0.032101307 -0.067099117 0.032374553 255 255 180
0 0 0 0 0 0
0 0 0 0 0 0
0 0 0 0 0 0
0 0 0 0 0 0
0 0 0 0 0 0
0 0 0 0 0 0
0 0 0 0 0 0
0 0 0 0 0 0
0 0 0 0 0 0
0 0 0 0 0 0
0 0 0 0 0 0
0 0 0 0 0 0
0.00038280172 -0.077374272 0.045155518 255 255 180
-0.0041600489 -0.077948384 0.049360774 255 255 180
0.035569727 -0.077817574 0.050391801 255 255 180
0 0 0 0 0 0
0.11132009 -0.041485567 0.033380907 77 175 74
0.1132444 -0.086827181 0.034426056 77 175 74
0.11815861 -0.044446029 0.017424373 77 175 74
0 0 0 0 0 0
0 0 0 0 0 0
0.017545933 -0.1345502 0.099252559 255 127 0
0.020802237 -0.14464794 0.09908057 255 127 0
0 0 0 0 0 0
6.0273174e-05 -0.14508213 0.11048505 255 127 0
0.014417251 -0.10793053 0.10057899 255 127 0
0 0 0 0 0 0
0 0 0 0 0 0
0.050375998 -0.088791363 0.067559853 255 127 0
0.054955106 -0.14285529 0.073146224 255 127 0
0 0 0 0 0 0
0 0 0 0 0 0
0.017472452 -0.077036738 0.06714958 255 255 180
0.0068711243 -0.07718344 0.08025492 255 255 180
0 0 0 0 0 0
0 0 0 0 0 0
-0.0026193464 -0.057455499 0.12228514 0 255 0
0 0 0 0 0 0
0.016892474 -0.073218793 0.092290297 255 255 180
0.045490105 -0.077337593 0.065583326 255 255 180
0.0061772601 -0.026008608 0.089931272 0 255 0
-0.0045657572 -0.057128269 0.12021319 0 255 0
0 0 0 0 0 0
0 0 0 0 0 0
0.12515099 -0.088127553 0.027802559 77 175 74
0.13640346 -0.11877692 0.046785485 77 175 74
0.12137711 -0.13529897 0.020566791 77 175 74
0.12118008 -0.12623928 0.021030558 77 175 74
0.12730755 -0.047284648 0.061390325 77 175 74
0.12896612 -0.082542717 0.063575938 77 175 74
0.14469913 -0.074220285 0.063912623 77 175 74
0.12163223 -0.050517853 0.024928376 77 175 74
0.12067274 -0.064425953 0.050016057 77 175 74
0.12272337 -0.031791639 0.054077592 77 175 74
0.11969085 -0.032509413 0.049013801 77 175 74
0.12359765 -0.0808338 0.053200819 77 175 74
0.14073829 -0.025752559 0.058546066 77 175 74
0.12222268 -0.043252055 0.053233843 77 175 74
0.12917927 -0.08374653 0.064174503 77 175 74
0.13536286 -0.027351379 0.050282076 77 175 74
0.11952318 -0.03024571 0.047976732 77 175 74
0.15241802 -0.14933437 0.088425703 55 126 184
0.15674798 -0.14654562 0.081922032 77 175 74
0.13900587 -0.089520551 0.081357844 77 175 74
0.13085382 -0.1411777 0.06424199 77 175 74
0.15254276 -0.033330165 0.079461448 77 175 74
0.15400848 -0.060245439 0.079897851 77 175 74
0.14082327 -0.04466448 0.08540605 77 175 74
0.1527275 -0.084925368 0.084765449 55 126 184
0.018524854 -0.15173459 0.1589155 55 126 184
0 0 0 0 0 0
0 0 0 0 0 0
0.011841178 -0.26262954 0.16295975 228 26 28
0.0096028596 -0.21207601 0.15947086 228 26 28
0 0 0 0 0 0
0.014808239 -0.18004042 0.15792806 228 26 28
0.004703837 -0.27206096 0.13024323 166 86 40
0 0 0 0 0 0
0 0 0 0 0 0
0 0 0 0 0 0
0.016596057 -0.26254213 0.15187611 55 126 184
0.017749993 -0.25613433 0.15971908 228 26 28
0.0085788881 -0.26620096 0.16776724 55 126 184
0.009414712 -0.24080452 0.16796939 55 126 184
-0.0028498746 -0.11895406 0.16198088 228 26 28
-0.0050447658 -0.049804494 0.12748919 228 26 28
0.015400832 -0.061268721 0.15681097 55 126 184
0.0023517071 -0.089665808 0.16628395 55 126 184
0.0034978716 -0.047471914 0.16395494 55 126 184
0 0 0 0 0 0
0.0030246992 -0.057272546 0.16424423 55 126 184
-0.0044823173 -0.058482628 0.16198424 228 26 28
0 0 0 0 0 0
-0.0041512977 -0.04928169 0.1637855 228 26 28
0.00069517747 -0.046142206 0.16515075 55 126 184
0 0 0 0 0 0
-0.0010916051 -0.046622291 0.1295879 0 255 0
0 0 0 0 0 0
0 0 0 0 0 0
0.017653733 -0.12709026 0.15864256 55 126 184
0 0 0 0 0 0
-0.0028172201 -0.062750921 0.15568545 55 126 184
0 0 0 0 0 0
-0.14493267 -0.0083957836 0.076210909 96 0 41
-0.13873114 0.04879323 0.055268884 96 0 41
0 0 0 0 0 0
-0.13224004 0.046847004 0.10050149 96 0 41
-0.14117141 0.0034657812 0.053491682 96 0 41
-0.13444291 0.055855758 0.063916333 96 0 41
-0.14246291 -0.0017469919 0.049793005 96 0 41
-0.14643206 -0.011212939 0.052570339 96 0 41
-0.14364794 -0.0099211698 0.058088876 96 0 41
-0.14623849 0.0031377142 0.053585581 96 0 41
0 0 0 0 0 0
-0.13590722 0.017944282 0.059653804 96 0 41
0 0 0 0 0 0
-0.13406953 0.011165907 0.094398744 96 0 41
-0.14738944 -0.0071259746 0.051676691 96 0 41
-0.13198847 0.074856393 0.069139898 96 0 41
0 0 0 0 0 0
-0.10073852 0.025678879 0.009443013 0 0 255
-0.11485665 -0.011095505 0.033268131 96 0 41
-0.10001259 0.0011628913 0.0092201475 0 0 255
-0.11579113 -0.0080883736 0.028958296 96 0 41
-0.10656194 -0.011795769 0.011257103 0 0 255
-0.096025601 0.017777588 0.056466494 228 26 28
-0.11650532 0.012187906 0.019255858 228 26 28
0 0 0 0 0 0
-0.10811581 0.030450342 0.035805155 228 26 28
-0.092932694 -0.013985048 0.0050526173 228 26 28
-0.092527322 0.033683121 0.004361155 0 0 255
0 0 0 0 0 0
-0.11610954 -0.0013290738 0.028910823 96 0 41
0 0 0 0 0 0
-0.094866455 -0.020363798 0.0053797755 228 26 28
-0.096775554 0.0043678093 0.0050962511 0 0 255
-0.098533206 0.066705838 0.053819429 228 26 28
-0.11181941 0.050076295 0.014556527 0 0 255
-0.096519448 0.094714947 0.0028950404 228 26 28
-0.097897254 0.046814304 0.0074915052 0 0 255
-0.09895312 0.096304379 0.054433078 228 26 28
0 0 0 0 0 0
0 0 0 0 0 0
0 0 0 0 0 0
0 0 0 0 0 0
-0.11248461 0.09229058 0.01348879 0 0 255
0 0 0 0 0 0
-0.11544041 0.065768063 0.015982416 0 0 255
-0.10621538 0.041768488 0.012326919 0 0 255
-0.10830789 0.047084574 0.013084705 0 0 255
0 0 0 0 0 0
-0.1002538 -0.0017848767 0.12410797 96 0 41
-0.12674505 0.017365573 0.075002387 96 0 41
-0.11008725 0.034733981 0.10825788 96 0 41
0 0 0 0 0 0
0 0 0 0 0 0
-0.083468817 0.032864597 0.07830517 228 26 28
0 0 0 0 0 0
-0.085358053 -0.01139876 0.074001148 228 26 28
-0.090691462 0.019150859 0.066138066 228 26 28
0 0 0 0 0 0
-0.02547312 0.015036539 0.11886033 255 127 0
-0.0054455185 -0.014270142 0.10793307 255 127 0
-0.062832922 0.014071587 0.11387692 228 26 28
-0.01352106 -0.0044590319 0.11225128 255 127 0
-0.0302915 0.012594635 0.12180644 228 26 28
-0.022467697 -0.008761622 0.1172513 255 127 0
-0.030269261 0.032745406 0.12361563 255 127 0
0 0 0 0 0 0
-0.1137954 0.060955055 0.098880865 96 0 41
-0.12793991 0.053242937 0.075320736 96 0 41
0 0 0 0 0 0
0 0 0 0 0 0
-0.12925984 0.050160445 0.10600968 96 0 41
0 0 0 0 0 0
-0.12935643 0.036683612 0.085469402 96 0 41
-0.089933075 0.039179716 0.067610502 228 26 28
-0.11001199 0.055418085 0.10589033 96 0 41
-0.10296446 0.05401108 0.11781128 96 0 41
0 0 0 0 0 0
-0.10317329 0.077094458 0.11831464 96 0 41
-0.11584003 0.078100324 0.097401559 96 0 41
0 0 0 0 0 0
-0.1192949 0.060532428 0.12466091 96 0 41
-0.011231549 0.072603807 0.10778512 255 127 0
-0.021900607 0.06484884 0.11572706 228 26 28
-0.031815834 0.061140399 0.12022073 255 127 0
-0.012713583 0.037951056 0.11017539 255 127 0
-0.020097774 0.073952504 0.11270582 255 127 0
0 0 0 0 0 0
-0.062156357 0.080259107 0.11856144 228 26 28
-0.018301697 0.053158917 0.11306673 255 127 0
-0.011588352 0.095733292 0.11043633 255 127 0
-0.072329678 0.10238393 0.033632047 0 0 68
-0.068350725 0.10179491 0.018639099 0 0 68
-0.10431778 0.099595927 0.0057833623 0 0 68
0 0 0 0 0 0
-0.089328595 0.10157746 0.056656655 0 0 68
-0.070480451 0.10427649 0.030523196 0 0 68
0 0 0 0 0 0
-0.093554616 0.10092407 0.032307934 0 0 68
-0.099338405 0.10320706 0.032059573 228 26 28
-0.12041421 0.10030155 0.020957487 0 0 68
-0.10242042 0.10351402 0.021495894 0 0 68
-0.10832547 0.10151498 0.037786059 228 26 28
-0.1165445 0.10053322 0.017104032 0 0 68
0 0 0 0 0 0
-0.019847641 0.10364608 0.015383123 0 0 68
-0.046630092 0.10594078 0.046385136 0 0 68
-0.058297079 0.10363909 0.059807241 0 0 68
0 0 0 0 0 0
-0.058762908 0.10275088 0.059772253 0 0 68
-0.037895486 0.10297491 0.01228307 0 0 68
-0.028555941 0.10764801 0.010983498 0 0 68
-0.010102634 0.10863013 0.052679516 0 0 68
-0.063668229 0.1020193 0.043604176 0 0 68
0 0 0 0 0 0
-0.025356386 0.10643363 0.057450783 0 0 68
-0.064852379 0.10232661 0.039089784 0 0 68
0 0 0 0 0 0
0 0 0 0 0 0
-0.068361782 0.2146617 0.055147022 255 0 255
0 0 0 0 0 0
0 0 0 0 0 0
0 0 0 0 0 0
0 0 0 0 0 0
0 0 0 0 0 0
0 0 0 0 0 0
-0.074036673 0.18765384 0.04295494 228 26 28
0 0 0 0 0 0
0 0 0 0 0 0
0 0 0 0 0 0
0 0 0 0 0 0
-0.071146078 0.10316221 0.092123419 0 0 68
-0.087835595 0.10447276 0.069696732 228 26 28
-0.053118832 0.10457154 0.10537043 0 0 68
-0.007807699 0.10731954 0.086079873 0 0 68
-0.055077508 0.10439377 0.1213387 0 0 68
-0.041405756 0.10103703 0.1248411 255 127 0
-0.0636831 0.10574928 0.1142271 0 0 68
-0.01287367 0.10733653 0.10560159 0 0 68
-0.032994885 0.10492847 0.10518955 0 0 68
-0.035891753 0.10422318 0.12166382 255 127 0
0 0 0 0 0 0
-0.03085714 0.10696399 0.075663805 0 0 68
0 0 0 0 0 0
0 0 0 0 0 0
0 0 0 0 0 0
-0.038797691 0.20941296 0.1121418 228 26 28
0 0 0 0 0 0
-0.046774171 0.19651109 0.098061927 228 26 28
0 0 0 0 0 0
-0.047790647 0.19283487 0.094779857 228 26 28
0 0 0 0 0 0
0 0 0 0 0 0
0 0 0 0 0 0
-0.021234078 0.19445148 0.1210761 228 26 28
-0.021947559 0.19531357 0.12073897 228 26 28
-0.019899787 -0.014132516 0.15215364 228 26 28
0 0 0 0 0 0
0 0 0 0 0 0
0 0 0 0 0 0
-0.0070386282 0.032238133 0.16222098 228 26 28
-0.01906131 0.010149186 0.16191393 55 126 184
-0.023907589 0.012131047 0.14675185 228 26 28
0 0 0 0 0 0
-0.034011927 -0.0007669293 0.12915343 255 127 0
-0.033186745 0.0046070782 0.12941411 228 26 28
-0.021157857 0.00076269294 0.17052817 228 26 28
-0.022362534 0.011648957 0.14930204 228 26 28
0 0 0 0 0 0
-0.0078225899 0.034485519 0.16026279 228 26 28
-0.0549835 -0.010425762 0.12956254 255 127 0
-0.040928744 0.0045362399 0.13035722 255 127 0
0 0 0 0 0 0
-0.041974556 0.038317259 0.15104531 55 126 184
-0.024363881 0.042488065 0.14041397 228 26 28
-0.043773301 0.078619428 0.12679353 255 127 0
0 0 0 0 0 0
0 0 0 0 0 0
-0.0076493863 0.056290291 0.16172625 228 26 28
-0.0082705738 0.084245749 0.15336764 55 126 184
-0.0078960061 0.081838973 0.16152412 228 26 28
-0.025354538 0.041046996 0.14478317 228 26 28
0 0 0 0 0 0
-0.010316576 0.082319275 0.15846966 228 26 28
0 0 0 0 0 0
-0.066068962 -0.019413125 0.19994617 55 126 184
-0.066576697 0.031232944 0.19954845 55 126 184
-0.071576528 0.06456463 0.19090547 55 126 184
0 0 0 0 0 0
0 0 0 0 0 0
0 0 0 0 0 0
0 0 0 0 0 0
0 0 0 0 0 0
-0.016075497 0.21145383 0.13151206 228 26 28
-0.076608337 0.19748425 0.18966821 55 126 184
0 0 0 0 0 0
-0.0084490553 0.16342859 0.14967746 55 126 184
-0.024442565 0.2129052 0.13903843 228 26 28
0 0 0 0 0 0
0 0 0 0 0 0
0 0 0 0 0 0
0 0 0 0 0 0
-0.009739399 0.10806632 0.15312378 55 126 184
-0.0094760433 0.21533757 0.14298686 228 26 28
-0.071467482 0.28528765 0.038667928 152 78 163
-0.078932606 0.24710104 0.053478763 255 0 255
-0.089961924 0.24437788 0.056223113 255 0 255
-0.062826537 0.24541232 0.032191318 152 78 163
-0.054749195 0.26260042 0.028633613 152 78 163
-0.029674536 0.28072169 0.012761282 152 78 163
-0.020781523 0.24785872 0.019340599 255 0 255
-0.040525697 0.24789366 0.021855766 152 78 163
-0.0096816216 0.24681354 0.031540528 255 0 255
-0.052643567 0.24868146 0.027832434 152 78 163
-0.05055422 0.24526465 0.031728145 255 0 255
-0.04231216 0.24593544 0.044846926 255 0 255
-0.042190444 0.25763014 0.02076754 152 78 163
-0.0591329 0.26059932 0.032841723 152 78 163
-0.036058158 0.28120264 0.01740602 152 78 163
-0.027014596 0.24680389 0.06144426 255 0 255
-0.018712569 0.24634834 0.026550528 255 0 255
-0.019922759 0.24670506 0.024658194 255 0 255
-0.024572192 0.2788164 0.010457504 152 78 163
-0.011109539 0.27862027 0.0044841957 152 78 163
-0.03101933 0.27887842 0.015430574 152 78 163
-0.046126917 0.24626382 0.063716508 255 0 255
-0.039137583 0.25686166 0.021712713 152 78 163
-0.070814796 0.308357 0.037670884 152 78 163
-0.10035931 0.30784559 0.053940907 152 78 163
-0.10339563 0.34125555 0.05195903 228 26 28
-0.10286123 0.31834921 0.052060325 228 26 28
-0.06905514 0.34331036 0.03345985 152 78 163
-0.095500126 0.30387789 0.049182255 152 78 163
-0.04943087 0.29880914 0.025349088 152 78 163
-0.054294091 0.30135328 0.026111905 152 78 163
-0.047839738 0.33742782 0.02139955 152 78 163
-0.04920347 0.31501651 0.025096605 152 78 163
-0.013857214 0.32729462 0.0025931359 152 78 163
-0.030449342 0.31644201 0.012018457 152 78 163
-0.062085811 0.30044162 0.03253407 152 78 163
-0.052325085 0.2961702 0.02581854 152 78 163
-0.077773817 0.24919264 0.094861381 228 26 28
-0.077650361 0.25457263 0.093655765 228 26 28
-0.077350318 0.28364536 0.099129155 228 26 28
-0.081397444 0.25098538 0.086846769 228 26 28
-0.073117845 0.26378453 0.10032913 228 26 28
-0.068835534 0.24760506 0.090804599 255 0 255
-0.069384553 0.27894011 0.10860948 228 26 28
-0.072107278 0.25887439 0.10550188 228 26 28
-0.022970453 0.24953403 0.096710362 255 0 255
-0.05581278 0.24667138 0.10910736 255 0 255
-0.019292062 0.24901116 0.068760857 255 0 255
-0.029061148 0.24921952 0.12602161 255 0 255
-0.022253901 0.24910057 0.079605937 255 0 255
-0.033189278 0.24741666 0.11026444 255 0 255
-0.034249932 0.24697387 0.076879084 255 0 255
-0.046665762 0.24611183 0.078570671 255 0 255
-0.030797044 0.24791539 0.10206153 255 0 255
-0.061508559 0.2711156 0.12250052 228 26 28
-0.019604413 0.24848886 0.10783918 255 0 255
-0.077568553 0.30326182 0.099409871 228 26 28
-0.086605079 0.33228394 0.08436314 228 26 28
-0.073705569 0.28796703 0.10099478 228 26 28
-0.074822381 0.32358497 0.10472049 228 26 28
-0.083880827 0.32092404 0.084608324 228 26 28
-0.086356111 0.33791214 0.083389059 228 26 28
-0.094525218 0.32665059 0.067059696 228 26 28
-0.061398279 0.2960963 0.12353962 228 26 28
-0.064903855 0.29160085 0.1179236 228 26 28
-0.064407274 0.32736951 0.11981554 228 26 28
-0.092312343 0.36357501 0.045154527 152 78 163
-0.10055837 0.38232613 0.049606849 152 78 163
-0.099297017 0.40744254 0.060916565 228 26 28
-0.099793933 0.3961145 0.047979452 152 78 163
-0.10636049 0.38720176 0.052971561 228 26 28
-0.097754791 0.34962055 0.062088288 228 26 28
-0.090707295 0.40635511 0.045439579 152 78 163
-0.099344902 0.39822963 0.063131839 228 26 28
-0.091730647 0.36636809 0.047355197 152 78 163
-0.1018599 0.3782838 0.057683475 228 26 28
-0.095893867 0.38573197 0.048016254 152 78 163
-0.061172083 0.37121192 0.027850622 152 78 163
-0.063380994 0.39719781 0.02967751 152 78 163
-0.05749527 0.39166683 0.027210547 152 78 163
-0.064386629 0.37575707 0.030815275 152 78 163
-0.053925186 0.36573753 0.025331652 152 78 163
-0.032203015 0.36325276 0.012775994 152 78 163
-0.032476231 0.36580127 0.013086385 152 78 163
-0.054647412 0.39352447 0.022460347 152 78 163
-0.057530355 0.36098918 0.027764438 152 78 163
-0.061007615 0.35258964 0.028208008 152 78 163
-0.030872762 0.36743823 0.010051893 152 78 163
-0.073070385 0.45301798 0.031006467 152 78 163
-0.091773838 0.46065077 0.062850222 153 153 153
-0.088500313 0.42498919 0.043155354 152 78 163
-0.081803016 0.45945919 0.048665561 153 153 153
-0.078855291 0.43205154 0.037542675 152 78 163
-0.092341453 0.41345856 0.04529215 152 78 163
-0.09743008 0.44230202 0.044944998 152 78 163
-0.09175159 0.44187224 0.04214526 152 78 163
-0.10771851 0.44578758 0.049982466 152 78 163
-0.1062284 0.45919895 0.055618975 228 26 28
-0.09296263 0.44854203 0.044253059 152 78 163
-0.07850872 0.44733667 0.035162505 152 78 163
-0.085525483 0.46039408 0.041427035 153 153 153
-0.10342694 0.41500768 0.053990915 228 26 28
-0.016292227 0.46222982 0.036175638 153 153 153
-0.037506375 0.43612641 0.011879072 152 78 163
-0.042328171 0.42067131 0.0154645 152 78 163
-0.022971807 0.46110636 0.045620844 153 153 153
-0.025460452 0.45998642 0.018876733 153 153 153
-0.064105183 0.45942912 0.062211443 153 153 153
-0.050799984 0.45717376 0.01830552 152 78 163
-0.044881064 0.41956714 0.018537736 152 78 163
-0.031762466 0.43027511 0.0081404084 152 78 163
-0.058003359 0.46123672 0.030809019 153 153 153
-0.048809573 0.46170714 0.015348132 152 78 163
-0.029707741 0.45150825 0.0072873961 152 78 163
-0.034567982 0.43886858 0.0095570907 152 78 163
-0.012447412 0.46068782 0.021789704 153 153 153
-0.050757345 0.42502835 0.021335546 152 78 163
-0.059157785 0.46165416 0.046867967 153 153 153
-0.038071319 0.42980313 0.014196839 152 78 163
-0.074409507 0.40258595 0.10539378 228 26 28
-0.076762699 0.3907586 0.099118099 228 26 28
-0.090279967 0.39482915 0.079727314 228 26 28
-0.098270833 0.40307283 0.065570459 228 26 28
-0.07431677 0.38541448 0.1033155 228 26 28
-0.072899207 0.40237814 0.11143754 228 26 28
-0.073529847 0.44268727 0.10693042 228 26 28
-0.096278638 0.45630303 0.067612 228 26 28
-0.08618591 0.45959902 0.082596876 153 153 153
-0.068046667 0.4187299 0.11982083 228 26 28
-0.081304871 0.46142808 0.068795316 153 153 153
-0.074827857 0.41332364 0.10730496 228 26 28
-0.085709177 0.44634131 0.090569861 228 26 28
-0.099912517 0.45019847 0.064409427 228 26 28
-0.092229076 0.42275563 0.078187205 228 26 28
-0.075286977 0.46010798 0.10771424 228 26 28
-0.087683007 0.44291079 0.083197258 228 26 28
-0.079933226 0.46184495 0.093726136 153 153 153
-0.097591974 0.41123328 0.064539678 228 26 28
-0.087086923 0.45218405 0.087054424 228 26 28
-0.086520091 0.44900492 0.085060999 228 26 28
-0.076169066 0.44840229 0.10669685 228 26 28
-0.0078041316 0.4637644 0.11602154 153 153 153
-0.024167171 0.46339503 0.083161935 153 153 153
-0.023396289 0.46310875 0.092907056 153 153 153
-0.03250828 0.46066719 0.070033513 153 153 153
-0.034891669 0.46079436 0.083876058 153 153 153
-0.025120731 0.46154121 0.078326732 153 153 153
-0.009696777 0.46403071 0.083646066 153 153 153
-0.07857997 0.25894779 0.18772642 55 126 184
0 0 0 0 0 0
0 0 0 0 0 0
0 0 0 0 0 0
-0.056214254 0.25035512 0.13285176 228 26 28
-0.050469294 0.24717763 0.13834932 255 0 255
-0.017856222 0.25503704 0.16160475 55 126 184
0 0 0 0 0 0
0 0 0 0 0 0
-0.026664695 0.25066379 0.14638829 255 0 255
-0.029345799 0.26278844 0.16777059 55 126 184
-0.051226579 0.24892026 0.13606092 255 0 255
-0.060239606 0.24829252 0.12982799 228 26 28
-0.0081968158 0.276979 0.15288454 55 126 184
-0.039955392 0.24945538 0.14040875 255 0 255
-0.03574039 0.25961128 0.1717793 228 26 28
-0.010642575 0.2522071 0.15786768 55 126 184
0 0 0 0 0 0
0 0 0 0 0 0
0 0 0 0 0 0
-0.055370323 0.30616328 0.13730542 228 26 28
-0.041445538 0.32091957 0.16334654 228 26 28
-0.046313647 0.34469059 0.15160535 228 26 28
-0.03574447 0.29625863 0.17117414 55 126 184
-0.0065479036 0.34639931 0.15182438 55 126 184
-0.014449082 0.29314962 0.15563151 55 126 184
-0.058139689 0.29653239 0.13237725 228 26 28
-0.024878737 0.30564582 0.16377987 55 126 184
-0.020896563 0.28832933 0.16255136 55 126 184
-0.037625883 0.30877963 0.16515177 228 26 28
-0.025856765 0.30944115 0.16181985 55 126 184
-0.016429631 0.28619078 0.15721919 55 126 184
-0.026650827 0.29427284 0.16547 55 126 184
-0.073319137 0.24017574 0.19489798 55 126 184
0 0 0 0 0 0
0 0 0 0 0 0
0 0 0 0 0 0
0 0 0 0 0 0
0 0 0 0 0 0
-0.078142442 0.33257616 0.19388807 55 126 184
-0.07622724 0.34445235 0.19203581 55 126 184
-0.076075003 0.33496264 0.19345839 55 126 184
0 0 0 0 0 0
-0.029160071 0.40017718 0.16255525 55 126 184
-0.031759761 0.35222864 0.16343084 55 126 184
-0.020184191 0.36599129 0.15883334 55 126 184
-0.010612884 0.36734426 0.15118998 55 126 184
-0.022151673 0.35789815 0.15805739 55 126 184
0 0 0 0 0 0
-0.060841884 0.37826413 0.13135254 228 26 28
-0.058463741 0.36911255 0.13508169 228 26 28
-0.06049398 0.35971785 0.12726402 228 26 28
-0.04652144 0.34932336 0.15455273 228 26 28
-0.036126018 0.35487667 0.16658874 55 126 184
-0.058100246 0.37297535 0.13135646 228 26 28
-0.015286176 0.3540307 0.15393654 55 126 184
-0.054833848 0.39650032 0.141918 228 26 28
-0.063800015 0.43821511 0.12813735 228 26 28
-0.05285491 0.41541624 0.14667225 228 26 28
-0.048567891 0.43007356 0.15344222 228 26 28
-0.057976987 0.42618257 0.13422666 228 26 28
-0.055821676 0.42535949 0.13851754 228 26 28
-0.050540276 0.4177964 0.14725189 228 26 28
-0.058413289 0.42645395 0.13715081 228 26 28
-0.011237529 0.43656036 0.14903919 55 126 184
-0.02132763 0.42167762 0.1568438 55 126 184
-0.059654169 0.46073619 0.13271239 153 153 153
-0.05791349 0.45388293 0.13627689 228 26 28
-0.063359335 0.46105036 0.13114707 153 153 153
-0.057967145 0.46273252 0.12966992 153 153 153
-0.049199574 0.46197242 0.12969157 153 153 153
-0.05261755 0.46177644 0.14209872 153 153 153
-0.051797941 0.46349058 0.13068177 153 153 153
-0.0088581918 0.44632313 0.1472929 55 126 184
-0.011925461 0.44124645 0.15100099 55 126 184
0 0 0 0 0 0
0 0 0 0 0 0
0 0 0 0 0 0
-0.039077114 0.41926947 0.16733648 55 126 184
-0.029857889 0.4121536 0.16280143 55 126 184
-0.028768035 0.43930408 0.16120234 55 126 184
-0.040395446 0.44630611 0.16767335 55 126 184
-0.0033407188 -0.025131442 0.0032077818 255 127 0
0 0 0 0 0 0
0.010136331 0.020296477 0.026983615 255 127 0
0 0 0 0 0 0
0.044975299 -0.010075478 0.053554315 255 127 0
0.033336096 -0.019726044 0.019658284 255 127 0
0 0 0 0 0 0
0.0046049976 0.036523793 0.017778693 255 127 0
0.03593972 0.021809291 0.027776424 255 127 0
0 0 0 0 0 0
0.044272102 -0.0092171887 0.049581569 255 127 0
0.11834002 0.011393003 0.021679549 77 175 74
0.11705641 -0.0063361083 0.046262298 77 175 74
0.11775324 0.024004672 0.021213673 77 175 74
0.11736263 -0.012157582 0.044722054 77 175 74
0.11080761 -0.0011157299 0.034358349 77 175 74
0.09515541 0.026687989 0.0074022464 77 175 74
0.11415067 -0.019100323 0.038740702 77 175 74
0.11291251 0.0040652086 0.01192402 77 175 74
0.1187434 -0.023513459 0.020156894 77 175 74
0.11773174 -0.015884046 0.048582964 77 175 74
0.11592983 -0.0009207913 0.015969556 77 175 74
0.10329328 0.032467116 0.02191174 77 175 74
0.0034044106 0.071733005 0.016802041 255 127 0
-0.0041248156 0.041183408 0.0037401353 255 127 0
0 0 0 0 0 0
0.044240814 0.039007127 0.043130089 255 127 0
0 0 0 0 0 0
-0.0015937535 0.058779106 0.0086943395 255 127 0
0.0011510106 0.072113268 0.014060349 255 127 0
0.11558588 0.042645033 0.016782155 77 175 74
0.11633074 0.041394286 0.018742574 77 175 74
0.11147718 0.060925648 0.037656877 77 175 74
0.10985593 0.080672644 0.03714139 77 175 74
0.11515789 0.060004648 0.017501257 77 175 74
0.11358625 0.078346305 0.015324003 77 175 74
0.1159425 0.043291926 0.018369373 77 175 74
0.0038313223 0.0032177879 0.10524601 255 127 0
0 0 0 0 0 0
0.045256238 0.021699382 0.078273818 255 127 0
0 0 0 0 0 0
0 0 0 0 0 0
0.025632383 0.0017167256 0.094770707 255 127 0
0.015689561 0.0036462713 0.096940547 255 127 0
-0.0020519367 0.081062868 0.10244349 255 127 0
0 0 0 0 0 0
0 0 0 0 0 0
0.043591551 0.092023946 0.074790344 255 127 0
0.020659508 0.063320428 0.091656454 255 127 0
0.012424367 0.045196962 0.09895172 255 127 0
0 0 0 0 0 0
0 0 0 0 0 0
0 0 0 0 0 0
0.017199593 0.053381294 0.097721286 255 127 0
0 0 0 0 0 0
0 0 0 0 0 0
0 0 0 0 0 0
0.010336409 0.089177653 0.097823545 255 127 0
0.14996347 0.036915779 0.078009687 77 175 74
0.14724857 0.042830586 0.083654083 55 126 184
0.13912906 -0.0010432049 0.05760777 77 175 74
0.12558125 0.036057785 0.061806589 77 175 74
0.12662934 0.057411309 0.065015934 77 175 74
0.15185398 -0.0052977055 0.082370058 55 126 184
0.14831631 -0.0046380097 0.071934648 77 175 74
0.12225235 -0.012250588 0.054106407 77 175 74
0.14363089 0.076052174 0.084727451 55 126 184
0.14056104 0.011193553 0.059003796 77 175 74
0.12412129 0.085446186 0.034841731 77 175 74
0.12277476 0.080580272 0.058330797 77 175 74
0.12058283 0.011436084 0.025663165 77 175 74
0.13559851 0.085383318 0.080877207 77 175 74
0.13480306 -0.014977765 0.048446286 77 175 74
0.12392961 0.010244022 0.057469856 77 175 74
0.14205649 0.084997885 0.065337002 77 175 74
0.1490842 -0.012249609 0.072870351 77 175 74
0.0052686981 0.10887071 0.061083138 0 0 68
0.0064987871 0.10896224 0.044575416 0 0 68
0.0058087339 0.10857551 0.020395761 255 127 0
0.0088180192 0.10564633 0.035674844 0 0 68
0.0070717856 0.10858113 0.051049549 0 0 68
0.020427071 0.10504787 0.027552785 0 0 68
-0.0012574212 0.10276774 0.011918746 255 127 0
0.10652193 0.11324479 0.0040936186 77 175 74
0 0 0 0 0 0
0.098603934 0.11797225 0.017170517 77 175 74
0.11104119 0.13421099 0.012289793 77 175 74
0.11123399 0.12732328 0.012960521 77 175 74
0.10224622 0.11509026 0.024457596 77 175 74
0.091700092 0.15361112 0.0066327383 77 175 74
0.11905397 0.16914661 0.028517595 77 175 74
0.11503497 0.18630624 0.048631482 77 175 74
0.089359179 0.22258368 0.0048622098 77 175 74
0.10788921 0.19431017 0.036701985 77 175 74
0.11570442 0.21207632 0.052351244 77 175 74
0.11155645 0.20892411 0.01734044 77 175 74
0.10931696 0.16119669 0.038133267 77 175 74
0.096521437 0.21869487 0.017062472 77 175 74
0.11065982 0.16482046 0.012152777 77 175 74
0.09748625 0.18272246 0.017516486 77 175 74
0.11325179 0.20361936 0.018310677 77 175 74
0.11684319 0.1809544 0.053194653 77 175 74
0.01066371 0.10641949 0.072267704 0 0 68
0.019755889 0.10978691 0.066830173 0 0 68
0.0045646178 0.10567091 0.079226777 0 0 68
0 0 0 0 0 0
0.022584608 0.10605451 0.065102473 0 0 68
0.012754455 0.10606942 0.078894861 0 0 68
0.0011739701 0.09939459 0.10294916 255 127 0
0.0025075118 0.099161625 0.099555172 255 127 0
0 0 0 0 0 0
0.0036559834 0.10574932 0.09659005 0 0 68
0.12445918 0.21059074 0.038494326 77 175 74
0.12945169 0.14884293 0.073311642 77 175 74
0.1344436 0.1445865 0.081762366 77 175 74
0.14545617 0.1471179 0.074137971 77 175 74
0.12847731 0.20555553 0.073037744 77 175 74
0.12243114 0.10175331 0.059808902 77 175 74
0.12784828 0.10468958 0.04099372 77 175 74
0.14591262 0.12142591 0.08067017 55 126 184
0.13832007 0.20723718 0.063700341 77 175 74
0.11950118 0.12004432 0.055539317 77 175 74
0.12062594 0.12206699 0.028547041 77 175 74
0.13898781 0.1721891 0.063639186 77 175 74
0.12505384 0.21308486 0.068912208 77 175 74
0.1214138 0.12354635 0.029979518 77 175 74
0.13427278 0.18780029 0.082192227 77 175 74
0.12642606 0.22276501 0.043350328 77 175 74
0.12149471 0.16391009 0.060428154 77 175 74
0 0 0 0 0 0
-0.0024305985 -0.012515189 0.15394312 55 126 184
0 0 0 0 0 0
-0.0043296446 0.056761082 0.15218943 55 126 184
-0.0030912419 0.061820816 0.16275051 55 126 184
0 0 0 0 0 0
0.0023154453 0.05941955 0.15684383 228 26 28
-0.003597365 0.17218755 0.15215555 228 26 28
0 0 0 0 0 0
0 0 0 0 0 0
0 0 0 0 0 0
0.0058088214 0.21232213 0.16945826 228 26 28
0 0 0 0 0 0
-0.0040674619 0.21935913 0.16306479 255 0 255
0.019319156 0.2482961 0.05524344 255 0 255
0.01199396 0.24766438 0.008257471 255 0 255
0.026442271 0.25014845 0.05874002 255 0 255
0.052403364 0.25062528 0.014095473 255 0 255
0.028793421 0.24830319 0.044086348 255 0 255
0.0094461674 0.24820733 0.0076477961 255 0 255
0.04034033 0.25042951 0.020425349 255 0 255
0.049343791 0.25011468 0.013254064 255 0 255
0.039922513 0.24838446 0.047196876 255 0 255
0.017707083 0.24941015 0.030601773 255 0 255
0.04180504 0.24846952 0.033871505 255 0 255
0.042074785 0.24943912 0.057593342 255 0 255
0.051564161 0.24909702 0.041789431 255 0 255
0.046666931 0.24849352 0.048041895 255 0 255
0.080743209 0.25132447 0.020371662 255 0 255
0.087868854 0.23879537 0.0037886342 77 175 74
0.10249096 0.25276896 0.0022371449 77 175 74
0.087813333 0.27885878 0.0040811482 77 175 74
0.084839657 0.28040817 0.0058606816 77 175 74
0.10126196 0.26772389 0.028509244 77 175 74
0.097463593 0.27049246 0.021768294 77 175 74
0.11677864 0.28163549 0.02764529 77 175 74
0.094893478 0.27095598 0.01776908 77 175 74
0.089500368 0.25664762 0.007708272 77 175 74
0.091386676 0.26882935 0.01674306 77 175 74
0.11051676 0.24814171 0.044362158 77 175 74
0.11300385 0.25089091 0.0492597 77 175 74
0 0 0 0 0 0
0.090513751 0.25235954 0.039967321 255 0 255
0 0 0 0 0 0
0.1058792 0.22467618 0.034269586 77 175 74
0.11558072 0.25071284 0.051934265 77 175 74
0.11144751 0.25671104 0.045436535 77 175 74
0.11639762 0.27815667 0.056223895 77 175 74
0.11314823 0.27868757 0.050589181 77 175 74
0.10733395 0.26134989 0.039720945 77 175 74
0.10373648 0.27633873 0.033386465 77 175 74
0.085689709 0.31277925 0.0083000092 77 175 74
0.10125735 0.31125221 0.028860133 77 175 74
0.09965004 0.2957758 0.032926552 77 175 74
0.098117143 0.30939168 0.030505076 77 175 74
0.10764071 0.28612033 0.013638056 77 175 74
0.093322657 0.30927777 0.020368764 77 175 74
0.098917961 0.3087399 0.025477281 77 175 74
0.093161099 0.34553954 0.022083648 77 175 74
0.11167042 0.32681307 0.02147169 77 175 74
0.092659235 0.31794015 0.015906915 77 175 74
0.097882435 0.33320621 0.02498466 77 175 74
0.099846765 0.33551589 0.029288478 77 175 74
0.10176386 0.33829379 0.0037840027 77 175 74
0.09571673 0.34277812 0.026747108 77 175 74
0.11648244 0.30360404 0.055409074 77 175 74
0.10731401 0.31666163 0.041450825 77 175 74
0.11162163 0.29452464 0.052931007 77 175 74
0.1094949 0.30718854 0.044297881 77 175 74
0.1034789 0.31302765 0.039684411 77 175 74
0.11534405 0.3131699 0.054232974 77 175 74
0.10549007 0.32278335 0.037670765 77 175 74
0.11061979 0.34414011 0.047437895 77 175 74
0.1162848 0.32057366 0.056061354 77 175 74
0.10522242 0.33876988 0.043041524 77 175 74
0.053288344 0.25193381 0.075571507 255 0 255
0.040181749 0.2710208 0.1260895 55 126 184
0.041911535 0.25173876 0.094328001 255 0 255
0.014650252 0.24879946 0.074916169 255 0 255
0.041452389 0.25151595 0.10411377 255 0 255
0.015890911 0.24918795 0.099786602 255 0 255
0.027176922 0.25079134 0.090212934 255 0 255
0.024782326 0.24925056 0.080885746 255 0 255
0.11289854 0.28401861 0.084459074 55 126 184
0.09337806 0.26054895 0.095896736 55 126 184
0 0 0 0 0 0
0.065534525 0.25226232 0.072761677 255 0 255
0.098280042 0.28269637 0.092116863 55 126 184
0 0 0 0 0 0
0 0 0 0 0 0
0.10972153 0.26486355 0.087371677 55 126 184
0 0 0 0 0 0
0 0 0 0 0 0
0.082644068 0.26133001 0.10369925 55 126 184
0.07731311 0.26443475 0.10761685 55 126 184
0 0 0 0 0 0
0.043425832 0.32407343 0.12213605 55 126 184
0.050438941 0.31352228 0.11864293 55 126 184
0.097633243 0.28992903 0.094282337 55 126 184
0.097504966 0.29349536 0.095014341 55 126 184
0.10362161 0.34333459 0.086818002 55 126 184
0.096916407 0.32724112 0.091408744 55 126 184
0.11113492 0.32726818 0.085349917 55 126 184
0.10757092 0.32590038 0.087227039 55 126 184
0.10753167 0.32113057 0.086412407 55 126 184
0.11703545 0.34071094 0.079265036 55 126 184
0.058009297 0.29039147 0.11730453 55 126 184
0.087671742 0.30337554 0.097516783 55 126 184
0.060916513 0.28769076 0.11430844 55 126 184
0.081511617 0.30045465 0.10097288 55 126 184
0.075503662 0.31291884 0.10425747 55 126 184
0.059632879 0.29272431 0.113719 55 126 184
0.087505676 0.29819009 0.099763654 55 126 184
0.088852137 0.30787739 0.099273458 55 126 184
0.074430294 0.32970175 0.1061409 55 126 184
0.057250962 0.32662597 0.11677022 55 126 184
0.061546646 0.33607531 0.11158075 55 126 184
0.083466776 0.34705508 0.098677352 55 126 184
0.090762578 0.33774465 0.095335729 55 126 184
0.12126584 0.27950504 0.063131712 77 175 74
0.12544869 0.23751526 0.041402128 77 175 74
0.12027056 0.26049671 0.06118622 77 175 74
0.13238892 0.33453411 0.056997944 77 175 74
0.13278043 0.33580062 0.058501396 77 175 74
0.13891187 0.23678158 0.065980263 77 175 74
0.12675753 0.24155909 0.072140723 77 175 74
0.12652966 0.2660014 0.078810506 55 126 184
0.12384482 0.26518023 0.067389481 77 175 74
0.12099099 0.28086275 0.064328782 77 175 74
0.1258828 0.26266974 0.07094188 77 175 74
0.12323093 0.25096786 0.067043774 77 175 74
0.12647051 0.2833578 0.079115003 55 126 184
0 0 0 0 0 0
0.12098794 0.3345696 0.064477384 77 175 74
0.14190681 0.31533474 0.074696645 77 175 74
0.14353465 0.28684223 0.075313509 77 175 74
0.12138772 0.32947579 0.066594668 77 175 74
0.1204148 0.32620904 0.068987139 77 175 74
0.12673113 0.30140328 0.079064623 55 126 184
0.12459444 0.2901949 0.069269307 77 175 74
0.099601306 0.38433167 0.029092841 77 175 74
0.10437544 0.4006004 0.03801284 77 175 74
0.085475102 0.39248517 0.010381411 77 175 74
0.11639851 0.39779568 0.060395759 77 175 74
0.11535149 0.40626571 0.030761031 77 175 74
0.11801634 0.39902529 0.062879272 77 175 74
0.095692374 0.39838067 0.022519324 77 175 74
0.10413454 0.35500491 0.035691187 77 175 74
0.082717031 0.40346146 0.0059077549 77 175 74
0.020653065 0.46376619 0.038108133 153 153 153
0.043330863 0.46236631 0.0019893544 153 153 153
0.0052895313 0.46319127 0.014606087 153 153 153
0.028462026 0.4641093 0.029446894 153 153 153
0.017129762 0.46237785 0.062618554 153 153 153
0.03294545 0.46272123 0.031313691 153 153 153
-0.0032595268 0.46021962 0.0046374151 153 153 153
0.051073518 0.46380121 0.0087017855 153 153 153
0.10005499 0.42674777 0.032817617 77 175 74
0.09134046 0.41716173 0.023021674 77 175 74
0.097136773 0.41739541 0.026506517 77 175 74
0.094765924 0.43733704 0.022880534 77 175 74
0.10026477 0.42995736 0.032918766 77 175 74
0.089020088 0.43014255 0.012620591 77 175 74
0.060039137 0.46236998 0.0056951325 153 153 153
0.075262912 0.46374208 0.0034925311 153 153 153
0.086229973 0.46559799 0.026002185 153 153 153
0.074719839 0.46489424 0.02559852 153 153 153
0.10300981 0.46017602 0.010625614 77 175 74
0.09196768 0.44301635 0.024136564 77 175 74
0.1085786 0.44538972 0.021468179 77 175 74
0.11818748 0.4179638 0.062752075 77 175 74
0.076326348 0.46369734 0.041679788 153 153 153
0.060636397 0.46317148 0.049006995 153 153 153
0.089814536 0.4643243 0.056785837 153 153 153
0 0 0 0 0 0
0.10890172 0.45449921 0.048201218 77 175 74
0.11617199 0.46282539 0.06294179 77 175 74
0.098737247 0.4580892 0.035817564 77 175 74
0.099964194 0.45312428 0.033102918 77 175 74
0.039637975 0.3945711 0.12402301 55 126 184
0.040659875 0.38507017 0.12370707 55 126 184
0.049591601 0.40002683 0.11816399 55 126 184
0.053299911 0.3669222 0.115022 55 126 184
0.041148089 0.39033288 0.12101822 55 126 184
0.055763092 0.35181677 0.1154912 55 126 184
0.066831574 0.38515654 0.108362 55 126 184
0.083237343 0.3622939 0.099882372 55 126 184
0.11441518 0.40053377 0.079485483 55 126 184
0.097544812 0.34792408 0.090993643 55 126 184
0.076223835 0.35671046 0.10180063 55 126 184
0.057748847 0.37194458 0.1119666 55 126 184
0.10507111 0.40839037 0.085374877 55 126 184
0.06004861 0.37585294 0.11074073 55 126 184
0.089986242 0.39763311 0.095292442 55 126 184
0.10464888 0.40513015 0.084477 55 126 184
0.091571033 0.37375334 0.094373032 55 126 184
0 0 0 0 0 0
0.051279821 0.42906842 0.11354454 55 126 184
0 0 0 0 0 0
0.0045200964 0.46410769 0.08480081 153 153 153
0 0 0 0 0 0
0.01025376 0.46435374 0.078478158 153 153 153
0.049283959 0.46251449 0.11543402 55 126 184
