ply
format ascii 1.0
comment PCL generated
element vertex 1199
property float x
property float y
property float z
property uchar red
property uchar green
property uchar blue
element camera 0
property float view_px
property float view_py
property float view_pz
property float x_axisx
property float x_axisy
property float x_axisz
property float y_axisx
property float y_axisy
property float y_axisz
property float z_axisx
property float z_axisy
property float z_axisz
property float focal
property float scalex
property float scaley
property float centerx
property float centery
property int viewportx
property int viewporty
property float k1
property float k2
end_header
-0.046444409 0.41757184 -0.14813143 55 126 184
-0.05504512 0.41999668 -0.14518303 55 126 184
-0.051635735 0.41387525 -0.14678384 55 126 184
-0.047754701 0.45761856 -0.13807689 96 0 41
-0.04291001 0.45875719 -0.1464728 96 0 41
-0.034432638 0.46026134 -0.12594019 96 0 41
-0.043010861 0.45854661 -0.14927316 96 0 41
-0.044237249 0.45955607 -0.1462498 96 0 41
-0.053020243 0.45914441 -0.14417192 96 0 41
-0.033336155 0.45746961 -0.14601743 96 0 41
-0.052725758 0.4556084 -0.14617078 55 126 184
-0.01623391 0.45828366 -0.1247275 96 0 41
-0.011555087 0.45815584 -0.14570907 96 0 41
-0.01105475 0.45675614 -0.1469979 96 0 41
-0.0067662667 0.45856765 -0.14187004 96 0 41
-0.012661295 0.45798337 -0.14200331 96 0 41
-0.13445182 0.24192962 -0.073487133 77 175 74
-0.13088934 0.24675818 -0.068218209 77 175 74
-0.11994965 0.25216061 -0.082330316 77 175 74
-0.13884826 0.25022882 -0.081375979 77 175 74
-0.12710623 0.26299959 -0.097161986 55 126 184
-0.12162827 0.25030759 -0.097376965 55 126 184
-0.12242977 0.26779804 -0.082268506 77 175 74
-0.12678048 0.26253575 -0.094407961 77 175 74
-0.12377977 0.23876163 -0.081867397 77 175 74
-0.13663748 0.27357867 -0.080952764 77 175 74
-0.14461717 0.27773628 -0.095744036 55 126 184
-0.12598927 0.28009787 -0.089905053 77 175 74
-0.14200796 0.28441879 -0.091811635 77 175 74
-0.12049708 0.27601224 -0.086991705 77 175 74
-0.13809316 0.28587461 -0.083894148 77 175 74
-0.13371895 0.25070009 -0.072517499 77 175 74
-0.13735966 0.29151574 -0.084777735 77 175 74
-0.12257624 0.33106786 -0.10108833 55 126 184
-0.12567236 0.2961463 -0.092791215 77 175 74
-0.11841677 0.3031525 -0.078918643 77 175 74
-0.12068813 0.29650575 -0.10009638 55 126 184
-0.12349907 0.3120687 -0.094318673 77 175 74
-0.12033214 0.33130231 -0.10422426 55 126 184
-0.12178446 0.32059121 -0.10275482 55 126 184
-0.12497273 0.33130291 -0.10137953 55 126 184
-0.12079392 0.29258966 -0.10158352 55 126 184
-0.13541406 0.32606182 -0.084978923 77 175 74
-0.12755157 0.32785246 -0.097727776 77 175 74
-0.12481819 0.34427923 -0.095192961 77 175 74
-0.11967909 0.30497324 -0.055291951 77 175 74
-0.11101682 0.27481443 -0.069255933 77 175 74
-0.080779746 0.24788941 -0.093872771 153 153 153
0 0 0 0 0 0
-0.09330602 0.27056339 -0.11710382 55 126 184
0 0 0 0 0 0
-0.11162321 0.25223881 -0.061641939 77 175 74
-0.10526287 0.28195143 -0.060587574 77 175 74
-0.09378469 0.24961691 -0.070066735 153 153 153
-0.057528723 0.2478842 -0.074753538 153 153 153
-0.11018994 0.26309946 -0.10656976 55 126 184
0 0 0 0 0 0
0 0 0 0 0 0
0 0 0 0 0 0
-0.079525433 0.24947102 -0.088779867 153 153 153
-0.096861869 0.28550008 -0.11535934 55 126 184
-0.11101029 0.26660833 -0.068807006 77 175 74
0 0 0 0 0 0
-0.11017718 0.26051915 -0.10714041 55 126 184
0 0 0 0 0 0
-0.075939417 0.24764653 -0.096901983 153 153 153
-0.050512098 0.24604799 -0.10739979 153 153 153
0.0017584406 0.243696 -0.10639801 153 153 153
-0.033965703 0.24767372 -0.089355394 153 153 153
-0.0038997852 0.24446562 -0.094084717 153 153 153
-0.0073385597 0.24580519 -0.11253449 153 153 153
-0.022738127 0.24565428 -0.099910796 153 153 153
-0.010420983 0.24678528 -0.072238401 153 153 153
-0.020990165 0.24393953 -0.11982321 153 153 153
-0.040573303 0.24595995 -0.093972869 153 153 153
-0.051231965 0.24821444 -0.085503675 153 153 153
-0.015368163 0.24534637 -0.092402101 153 153 153
-0.026882481 0.24784905 -0.091022067 153 153 153
-0.011791565 0.2464046 -0.10630204 153 153 153
-0.042425197 0.24667235 -0.10997416 153 153 153
-0.011519095 0.24796119 -0.069278084 153 153 153
-0.053544432 0.24737768 -0.082697347 153 153 153
-0.029653486 0.24582328 -0.1141706 153 153 153
-0.10040916 0.34141216 -0.11379326 55 126 184
-0.11161389 0.29978037 -0.074134775 77 175 74
-0.091165848 0.34667832 -0.12112478 55 126 184
-0.11100718 0.31963301 -0.069087066 77 175 74
-0.11431364 0.30845776 -0.10457255 55 126 184
-0.1172172 0.32259473 -0.081121624 77 175 74
-0.1047148 0.29465085 -0.11147315 55 126 184
-0.098869227 0.2918601 -0.11318295 55 126 184
-0.11269891 0.33025637 -0.072834864 77 175 74
-0.096404262 0.30621773 -0.11651561 55 126 184
-0.089402311 0.32771394 -0.12193643 55 126 184
-0.094972238 0.34050864 -0.11682846 55 126 184
-0.11708022 0.34663454 -0.083489716 77 175 74
-0.10466975 0.31447485 -0.11054794 55 126 184
-0.11132546 0.32010356 -0.10834602 55 126 184
-0.11034526 0.33664453 -0.10959484 55 126 184
-0.082738601 0.29520911 -0.12238811 55 126 184
-0.094928667 0.25337461 -0.033286426 77 175 74
-0.11505649 0.24396552 -0.040714554 77 175 74
-0.10472373 0.25753188 -0.056943063 77 175 74
-0.10213482 0.2561284 -0.046830956 77 175 74
-0.10046622 0.25104743 -0.043250263 77 175 74
-0.086027794 0.25002193 -0.051029194 153 153 153
-0.085745886 0.25088155 -0.029395569 153 153 153
-0.062058255 0.24967787 -0.046963204 153 153 153
-0.070309818 0.24986781 -0.042014167 153 153 153
-0.10739425 0.2829279 -0.030896667 77 175 74
-0.10953343 0.25926584 -0.058855463 77 175 74
-0.095807195 0.28549385 -0.044335969 77 175 74
-0.10908972 0.26477098 -0.058332741 77 175 74
-0.095856883 0.26443857 -0.036403582 77 175 74
-0.093001351 0.2813369 -0.033031695 77 175 74
-0.097508095 0.27989471 -0.041701056 77 175 74
-0.09727563 0.28428364 -0.040634964 77 175 74
-0.1011764 0.27413189 -0.046945505 77 175 74
-0.10519028 0.23144335 -0.020797091 77 175 74
-0.09230759 0.2487966 -0.028636139 77 175 74
-0.07447733 0.25349408 -0.01844107 153 153 153
-0.097942337 0.26081407 -0.01113923 77 175 74
-0.089072257 0.27850047 -0.025565762 77 175 74
-0.093670674 0.27011749 -0.0052667661 77 175 74
-0.089667216 0.26651564 -0.02481883 77 175 74
-0.070137858 0.28726634 0.00019847354 77 175 74
-0.076170884 0.27002335 -0.008968994 77 175 74
-0.080835707 0.26935244 -0.0097748842 77 175 74
-0.078688622 0.26374659 -0.012515671 77 175 74
-0.045622021 0.24890195 -0.046703555 153 153 153
-0.03283697 0.24838334 -0.045615882 153 153 153
-0.048206694 0.24885705 -0.044552363 153 153 153
-0.042302258 0.2502498 -0.055772323 153 153 153
-0.044076469 0.25102162 -0.033500068 153 153 153
0.0048419437 0.24927445 -0.036280457 153 153 153
-0.0084825298 0.2478037 -0.042369578 153 153 153
-0.0026543131 0.25043839 -0.033734057 153 153 153
-0.051055174 0.25088033 -0.024381856 153 153 153
-0.04628215 0.25272864 -0.01988508 153 153 153
0 0 0 0 0 0
0 0 0 0 0 0
-0.0032222846 0.24933179 -0.011718027 166 86 40
0 0 0 0 0 0
0 0 0 0 0 0
-0.029600644 0.26112622 -0.0011399824 166 86 40
-0.029855603 0.26794559 -0.00083593011 166 86 40
-0.0081810886 0.2682578 -0.013442361 166 86 40
-0.021591196 0.26009592 -0.0048872759 166 86 40
-0.00066597393 0.26048401 -0.017178884 166 86 40
-0.0089872265 0.26402268 -0.012146891 166 86 40
-0.098219611 0.29600257 -0.043731041 77 175 74
-0.097966447 0.31554389 -0.052236836 77 175 74
-0.11198158 0.29217499 -0.040343367 77 175 74
-0.095352851 0.30868062 -0.041228723 77 175 74
-0.10667098 0.3003175 -0.058590643 77 175 74
-0.10840675 0.31709638 -0.035927922 77 175 74
-0.090639204 0.30536294 -0.031624597 77 175 74
-0.1024504 0.30903298 -0.059416089 77 175 74
-0.088752955 0.31929991 -0.029863257 77 175 74
-0.10088597 0.33565938 -0.052450944 77 175 74
-0.091041245 0.33708614 -0.035371751 77 175 74
-0.094189227 0.32762954 -0.046669357 77 175 74
-0.10855343 0.34248161 -0.038945898 77 175 74
-0.1078649 0.32482582 -0.036316253 77 175 74
-0.099732913 0.34471899 -0.056986615 77 175 74
-0.091582179 0.34389427 -0.043590199 77 175 74
-0.10097819 0.3232089 -0.057527311 77 175 74
-0.10548041 0.32784641 -0.060182396 77 175 74
-0.089216776 0.31935 -0.0033429663 77 175 74
-0.083718568 0.30297485 -0.025986178 77 175 74
-0.073084779 0.31620798 -0.003550207 77 175 74
-0.072727077 0.29376152 -0.0041732648 77 175 74
-0.068716772 0.31243634 0.00033910142 77 175 74
-0.073694713 0.29468164 -0.0022154078 77 175 74
-0.10107098 0.32252079 -0.025145717 77 175 74
-0.070135772 0.33646107 0.0010620061 77 175 74
-0.077548377 0.32186681 -0.011786307 77 175 74
-0.076736949 0.33703423 -0.012246326 77 175 74
0.0053869621 0.31433487 -0.02315574 166 86 40
-0.008317085 0.30317083 -0.014315226 166 86 40
-0.016327692 0.29429486 -0.0095243473 166 86 40
-0.013442163 0.3036572 -0.0091495868 166 86 40
-0.032098822 0.34046441 -0.00019244412 166 86 40
-0.023081208 0.30037731 -0.0060220445 166 86 40
-0.028920211 0.33249223 -0.0043678265 166 86 40
-0.01826892 0.3085314 -0.0096463785 166 86 40
-0.12578829 0.41300654 -0.10501572 77 175 74
-0.12162938 0.3545441 -0.064311475 77 175 74
-0.12611066 0.36955288 -0.073200092 77 175 74
-0.12478155 0.37267783 -0.1038884 55 126 184
-0.12038075 0.37170771 -0.062980242 77 175 74
-0.12561178 0.3827773 -0.1026176 77 175 74
-0.12324597 0.37709206 -0.068459354 77 175 74
-0.12629645 0.38019148 -0.076066867 77 175 74
-0.1222205 0.36078981 -0.10388941 55 126 184
-0.12686993 0.35826772 -0.10182589 55 126 184
-0.12279496 0.3772901 -0.096692666 77 175 74
-0.12048728 0.41148588 -0.068355575 77 175 74
-0.13658716 0.35456032 -0.10224454 55 126 184
-0.13227175 0.39877927 -0.10726522 55 126 184
-0.130335 0.40793684 -0.10829717 55 126 184
-0.12708981 0.40380761 -0.078737698 77 175 74
-0.12200329 0.40188819 -0.06955222 77 175 74
-0.12116154 0.38828093 -0.10051309 77 175 74
-0.11868617 0.38831419 -0.089678712 77 175 74
-0.12135039 0.43226388 -0.10081042 77 175 74
-0.12385071 0.45033917 -0.10753858 55 126 184
-0.13406605 0.41518775 -0.093198635 77 175 74
-0.12263891 0.4419468 -0.10237414 77 175 74
-0.11871535 0.45952913 -0.0986588 77 175 74
-0.13796118 0.46272901 -0.10386648 77 175 74
-0.12116546 0.4548856 -0.074523948 77 175 74
-0.12920156 0.44440052 -0.087032236 77 175 74
-0.12557188 0.43298823 -0.079278253 77 175 74
-0.1249334 0.44022629 -0.079164684 77 175 74
-0.13501395 0.43935984 -0.096786708 77 175 74
-0.12530208 0.43490586 -0.07921461 77 175 74
-0.11189092 0.35373691 -0.10925093 55 126 184
-0.089543343 0.35774598 -0.12063519 55 126 184
-0.09830761 0.35828623 -0.11784508 55 126 184
-0.11348675 0.3983911 -0.10778054 55 126 184
-0.11377762 0.41278365 -0.11040761 55 126 184
-0.1124129 0.40667582 -0.11121341 55 126 184
-0.11629817 0.4057385 -0.10684542 55 126 184
-0.11365896 0.38869551 -0.10827968 55 126 184
-0.10971887 0.39965823 -0.11056326 55 126 184
-0.10517014 0.35775459 -0.067935348 77 175 74
-0.10367887 0.36682743 -0.068044558 77 175 74
-0.1045035 0.36931935 -0.062662803 77 175 74
-0.11820338 0.37917089 -0.060582764 77 175 74
-0.11336452 0.36010006 -0.077540666 77 175 74
-0.10574538 0.37704909 -0.07230027 77 175 74
-0.10925149 0.36240706 -0.071658753 77 175 74
-0.10751837 0.36488086 -0.068233103 77 175 74
-0.10432426 0.39182416 -0.071702853 77 175 74
-0.11111962 0.41126981 -0.080482848 77 175 74
-0.10631441 0.39345524 -0.068701953 77 175 74
-0.10831284 0.40524766 -0.073573768 77 175 74
-0.10832242 0.39879039 -0.073248781 77 175 74
-0.11650142 0.39942569 -0.088736735 77 175 74
-0.11382449 0.43685555 -0.10999286 55 126 184
-0.1070326 0.44155023 -0.1132284 55 126 184
-0.097349815 0.4308697 -0.11913101 55 126 184
-0.11652856 0.44205499 -0.097783066 77 175 74
-0.10786675 0.4518683 -0.11311515 55 126 184
-0.10096623 0.45739904 -0.11793147 55 126 184
-0.10987179 0.46316072 -0.091590792 96 0 41
-0.09130083 0.46250993 -0.11384188 96 0 41
-0.1154312 0.45148861 -0.0962997 77 175 74
-0.069901876 0.46159944 -0.11470538 96 0 41
-0.070426472 0.46287239 -0.10199074 96 0 41
-0.098625623 0.4339765 -0.065684788 77 175 74
-0.10419751 0.42718279 -0.06893228 77 175 74
-0.11788449 0.43190974 -0.067434937 77 175 74
-0.096073255 0.44011024 -0.06323076 77 175 74
-0.11377513 0.42472729 -0.085547708 77 175 74
-0.10712456 0.41816399 -0.072547846 77 175 74
-0.10061784 0.42419204 -0.069155842 77 175 74
-0.10616714 0.42342326 -0.072757989 77 175 74
-0.099257953 0.44378561 -0.068295605 77 175 74
-0.10607919 0.44393477 -0.080089986 77 175 74
-0.10036473 0.47247848 -0.06417384 96 0 41
-0.11484097 0.46176448 -0.064471893 77 175 74
-0.10258529 0.45294333 -0.069470227 77 175 74
-0.096080981 0.46469182 -0.084501028 96 0 41
-0.094077133 0.46470806 -0.071803369 96 0 41
-0.091150016 0.46388298 -0.084214687 96 0 41
-0.1130003 0.46380478 -0.088245161 77 175 74
-0.10991018 0.46433455 -0.08441478 77 175 74
-0.11112417 0.45427799 -0.084112816 77 175 74
-0.088129953 0.46205118 -0.091240525 96 0 41
-0.094262652 0.46574783 -0.067162097 96 0 41
-0.072303474 0.4630186 -0.088763572 96 0 41
-0.056922831 0.46293172 -0.060755864 96 0 41
0.0021496494 0.46168575 -0.078382507 96 0 41
-0.010565756 0.4596225 -0.098822519 96 0 41
-0.039330818 0.46058744 -0.12128162 96 0 41
0.0055158217 0.46033922 -0.096827105 96 0 41
-0.033603955 0.46060055 -0.11087541 96 0 41
-0.049143884 0.46352881 -0.063939624 96 0 41
-0.028562201 0.45963818 -0.1204496 96 0 41
-0.048094112 0.4626275 -0.091983475 96 0 41
-0.035286434 0.46302912 -0.071392179 96 0 41
-0.010948465 0.46080083 -0.070380315 96 0 41
-0.044831071 0.46032888 -0.094073929 96 0 41
-0.043792203 0.46259582 -0.089128412 96 0 41
-0.0031350553 0.4601312 -0.10439481 96 0 41
-0.053225849 0.46209469 -0.062704496 96 0 41
-0.016829465 0.45791376 -0.11570894 96 0 41
0.003169049 0.45971537 -0.10923628 96 0 41
-0.013551775 0.46210468 -0.069744796 96 0 41
-0.010822811 0.46194869 -0.083337426 96 0 41
-0.097864032 0.38168228 -0.052545901 77 175 74
-0.098046012 0.38125739 -0.058422323 77 175 74
-0.08894854 0.36986378 -0.040930457 77 175 74
-0.088970527 0.36832976 -0.037289124 77 175 74
-0.095736325 0.37247938 -0.0478414 77 175 74
-0.085748121 0.3621828 -0.029894808 77 175 74
-0.10935802 0.39523724 -0.047677208 77 175 74
-0.10115494 0.3925522 -0.059773907 77 175 74
-0.095409915 0.38512042 -0.048835035 77 175 74
-0.096559666 0.40959239 -0.058972038 77 175 74
-0.092790477 0.39919484 -0.05178706 77 175 74
-0.10080559 0.38802361 -0.031124769 77 175 74
-0.080293544 0.39487293 -0.029845364 77 175 74
-0.084811836 0.39195639 -0.031963523 77 175 74
-0.085227281 0.40301299 -0.033847827 77 175 74
-0.082474731 0.40502611 -0.034074496 77 175 74
-0.093621895 0.35202402 -0.014751157 77 175 74
-0.092366777 0.36243686 -0.014428259 77 175 74
-0.076202124 0.36191839 -0.013231703 77 175 74
-0.073620319 0.36753052 -0.010198724 77 175 74
-0.074094489 0.3635633 -0.0095766075 77 175 74
-0.07664413 0.35368618 -0.013036512 77 175 74
-0.075303301 0.35505128 -0.01675643 77 175 74
-0.068838179 0.35172284 -0.0038080185 77 175 74
-0.081865869 0.37049922 -0.024103995 77 175 74
-0.074932456 0.38157499 -0.013027534 77 175 74
-0.070538953 0.35449833 -0.003344496 77 175 74
-0.084677018 0.38152009 -0.0037543033 77 175 74
-0.087611124 0.41292736 -0.010536253 77 175 74
-0.067418769 0.41157213 -0.0037552251 77 175 74
-0.067044966 0.4119035 -0.0026671498 77 175 74
-0.06417916 0.3871572 0.00014519534 77 175 74
-0.082388416 0.3853372 0.00051966828 77 175 74
-0.067422114 0.40367788 -0.003023674 77 175 74
-0.070341051 0.41044918 -0.0095353574 77 175 74
-0.061609972 0.40749437 0.00160345 77 175 74
-0.06508816 0.39915815 0.00070062012 77 175 74
-0.071278796 0.39519379 -0.014436862 77 175 74
-0.011747774 0.37155503 -0.015727749 166 86 40
-0.012961765 0.40157008 -0.013504363 166 86 40
-0.0031741059 0.35311896 -0.019850595 166 86 40
-0.0079822363 0.40631285 -0.019017471 166 86 40
-0.023752464 0.39892867 -0.0071054259 166 86 40
-0.0041230214 0.4003053 -0.020917993 166 86 40
-0.018689599 0.37756354 -0.011725776 166 86 40
-0.033531599 0.35556021 -0.0003303749 166 86 40
-0.015600656 0.41056675 -0.012240184 166 86 40
-0.0065535475 0.35229197 -0.015918236 166 86 40
-0.020890873 0.36028296 -0.0098234303 166 86 40
0.0039577717 0.37307903 -0.024504019 166 86 40
-0.10020643 0.42895815 -0.034863632 77 175 74
-0.094112262 0.44427299 -0.054083649 77 175 74
-0.089248613 0.43526193 -0.044947602 77 175 74
-0.085823223 0.44229198 -0.039257236 77 175 74
-0.078848444 0.43323642 -0.031355001 77 175 74
-0.082103543 0.42951059 -0.037057638 77 175 74
-0.081372313 0.42295974 -0.035165992 77 175 74
-0.095701046 0.45724383 -0.031356033 77 175 74
-0.11075076 0.47249672 -0.058122221 77 175 74
-0.091733582 0.45842823 -0.0578795 77 175 74
-0.10981752 0.4666149 -0.056654826 77 175 74
-0.087924987 0.4562656 -0.044059921 77 175 74
-0.094472066 0.45083889 -0.054767452 77 175 74
-0.095409892 0.45557398 -0.030555725 77 175 74
-0.086055435 0.4517011 -0.041743815 77 175 74
-0.082127742 0.45326507 -0.033040956 77 175 74
-0.084293276 0.44861442 -0.037036248 77 175 74
-0.081179343 0.45688805 -0.038596775 77 175 74
-0.090327069 0.43164262 -0.019091152 77 175 74
-0.094732806 0.42441195 -0.024565138 77 175 74
-0.078067593 0.4437432 0.0015936248 77 175 74
-0.072069347 0.4443717 -0.015214382 77 175 74
-0.082528204 0.4156945 -0.0025670838 77 175 74
-0.063460059 0.44124392 8.2462437e-05 77 175 74
-0.075409465 0.43069273 -0.019555561 77 175 74
-0.071116745 0.41532946 -0.010791097 77 175 74
-0.06897486 0.46837908 -0.012910369 77 175 74
-0.061420359 0.4688769 -0.0002827626 96 0 41
-0.078078538 0.4457981 -0.02670233 77 175 74
-0.077512316 0.46016461 -0.027289828 77 175 74
-0.071523488 0.4497073 -0.015782865 77 175 74
-0.084266528 0.47280276 -0.012631734 77 175 74
-0.069618456 0.45843294 -0.012007525 77 175 74
-0.075540371 0.4520317 -0.023073204 77 175 74
-0.044573467 0.46455652 -0.045955352 96 0 41
-0.027384533 0.46446899 -0.036092531 96 0 41
-0.028761126 0.46339843 -0.055414014 96 0 41
-0.033850878 0.46370348 -0.059360791 96 0 41
1.5194641e-05 0.46326774 -0.043663345 96 0 41
-0.015070925 0.46196815 -0.048022319 96 0 41
-0.00026018359 0.46165666 -0.039865777 96 0 41
-0.0084599555 0.46170285 -0.050158385 96 0 41
-0.02187543 0.46454024 -0.044391211 96 0 41
-0.0074396376 0.46201682 -0.053285543 96 0 41
-0.0047995253 0.4624359 -0.045016106 96 0 41
-0.03792049 0.41434342 -0.00042006961 166 86 40
-0.033867173 0.42316359 -0.0024739418 166 86 40
-0.030778496 0.44355163 -0.00098992744 96 0 41
-0.043165725 0.41653547 0.0013074927 166 86 40
-0.040977005 0.44036192 -0.0005233445 166 86 40
-0.036997903 0.42420393 -0.00051118078 166 86 40
-0.010654026 0.4374072 -0.018364063 166 86 40
-0.01598463 0.4356077 -0.015803482 166 86 40
-0.0045626154 0.44015953 -0.021373447 166 86 40
-0.023927961 0.42409095 -0.010399961 166 86 40
-0.00012665901 0.4433938 -0.024047717 166 86 40
-0.01611618 0.42742965 -0.013185612 166 86 40
-0.043035652 0.46650261 -0.010824122 96 0 41
-0.027441902 0.46580583 -0.021432828 96 0 41
0 0 0 0 0 0
-0.04944697 0.4645569 -0.021085719 96 0 41
-0.04292943 0.45165589 0.0012377657 166 86 40
-0.034151871 0.45647135 -0.0036568325 96 0 41
0 0 0 0 0 0
-0.034272403 0.46495929 -0.018160688 96 0 41
-0.021442015 0.46405128 -0.010450578 96 0 41
0 0 0 0 0 0
0 0 0 0 0 0
0 0 0 0 0 0
0 0 0 0 0 0
0 0 0 0 0 0
0 0 0 0 0 0
0 0 0 0 0 0
0 0 0 0 0 0
0.0098086707 0.0078153266 -0.16586263 228 26 28
0 0 0 0 0 0
0 0 0 0 0 0
0 0 0 0 0 0
0 0 0 0 0 0
0 0 0 0 0 0
0 0 0 0 0 0
0 0 0 0 0 0
0 0 0 0 0 0
0.0074495319 0.036740903 -0.16037738 228 26 28
0.017804431 0.021664405 -0.16272151 0 0 68
0.02061124 0.028486548 -0.16758168 228 26 28
0 0 0 0 0 0
0.035976667 -0.0002997219 -0.13030304 0 0 68
0.035086673 -0.0029432112 -0.12475178 0 0 68
0.02741072 0.0013225087 -0.12269715 0 0 68
0.052609093 -0.0081497617 -0.1340746 0 0 68
0.050311189 -0.016347129 -0.13306433 0 0 68
0.054658115 -0.0018614844 -0.13347663 228 26 28
0 0 0 0 0 0
0.0551369 -0.0030353912 -0.13094166 0 0 68
0 0 0 0 0 0
0.035382077 0.01352346 -0.12542792 0 0 68
0 0 0 0 0 0
0 0 0 0 0 0
0 0 0 0 0 0
0.0274987 0.033386927 -0.13303986 228 26 28
0.024007985 0.033437755 -0.14652903 228 26 28
0.037874531 0.033409148 -0.14960802 228 26 28
0.041200787 0.036719788 -0.15316141 0 0 68
0.041882042 0.039833352 -0.1526939 228 26 28
0.040712249 0.035807144 -0.15301563 0 0 68
0.052435972 0.03799995 -0.1340816 228 26 28
0 0 0 0 0 0
0 0 0 0 0 0
0 0 0 0 0 0
0.0062659648 0.07987614 -0.1576746 0 0 68
0 0 0 0 0 0
0.035015758 0.051915698 -0.12566982 0 0 68
0.032125212 0.057490621 -0.12627856 228 26 28
0.027770869 0.043665405 -0.12393689 0 0 68
0.038933489 0.046941835 -0.12764935 0 0 68
0.055467643 0.052076939 -0.13360336 0 0 68
0.04291499 0.060577564 -0.1312816 228 26 28
0.039127301 0.061824415 -0.13097823 228 26 28
0.046491366 0.06289541 -0.13295059 0 0 68
0 0 0 0 0 0
0 0 0 0 0 0
0.056519136 0.042971652 -0.12837681 228 26 28
0.057471432 0.060647782 -0.12794469 228 26 28
0.03016733 0.083401069 -0.12688977 0 0 68
0.032467976 0.097751386 -0.12630318 0 0 68
0.039410327 0.098153234 -0.13193423 116 0 185
0.062370397 0.097577073 -0.12469175 228 26 28
0 0 0 0 0 0
0.057506114 0.094647557 -0.13262755 228 26 28
0.046902962 0.084661573 -0.13479212 0 0 68
0 0 0 0 0 0
0.036989301 0.099084012 -0.12349476 116 0 185
0.060955416 0.074446179 -0.12364773 228 26 28
0.057886116 0.099104427 -0.13230816 228 26 28
0.056404762 0.08197815 -0.13178845 228 26 28
0 0 0 0 0 0
0 0 0 0 0 0
0 0 0 0 0 0
0 0 0 0 0 0
0 0 0 0 0 0
0 0 0 0 0 0
0 0 0 0 0 0
0 0 0 0 0 0
0 0 0 0 0 0
0 0 0 0 0 0
0 0 0 0 0 0
0 0 0 0 0 0
0 0 0 0 0 0
0 0 0 0 0 0
0 0 0 0 0 0
0 0 0 0 0 0
0 0 0 0 0 0
0 0 0 0 0 0
0 0 0 0 0 0
0 0 0 0 0 0
0 0 0 0 0 0
0 0 0 0 0 0
0 0 0 0 0 0
0 0 0 0 0 0
0 0 0 0 0 0
0 0 0 0 0 0
0 0 0 0 0 0
0.0093977461 0.15533268 -0.16246127 0 0 68
0 0 0 0 0 0
0 0 0 0 0 0
0 0 0 0 0 0
0 0 0 0 0 0
0 0 0 0 0 0
0 0 0 0 0 0
0 0 0 0 0 0
0 0 0 0 0 0
0 0 0 0 0 0
0 0 0 0 0 0
0 0 0 0 0 0
0 0 0 0 0 0
0 0 0 0 0 0
0 0 0 0 0 0
0 0 0 0 0 0
0 0 0 0 0 0
0 0 0 0 0 0
0 0 0 0 0 0
0 0 0 0 0 0
0 0 0 0 0 0
0 0 0 0 0 0
0 0 0 0 0 0
0.064846732 0.037759017 -0.11210679 228 26 28
0.020642808 -0.0096722851 -0.11617016 0 0 68
0.0081173033 0.027774114 -0.11202707 0 0 68
0.017568728 0.011020418 -0.11397421 0 0 68
0.00951235 -0.0036048614 -0.1094495 0 0 68
0.066192687 0.014546748 -0.10708126 228 26 28
0.065133639 0.033701342 -0.11064103 228 26 28
0.024994062 -0.0062674298 -0.11843853 0 0 68
0.065486647 0.030696085 -0.11081348 228 26 28
0.026524695 -0.0064373994 -0.11862648 0 0 68
0.069936588 0.0051630153 -0.10097191 228 26 28
0 0 0 0 0 0
0 0 0 0 0 0
0 0 0 0 0 0
0 0 0 0 0 0
0 0 0 0 0 0
0.068489842 0.012938336 -0.10395014 228 26 28
0 0 0 0 0 0
0 0 0 0 0 0
0 0 0 0 0 0
0 0 0 0 0 0
0 0 0 0 0 0
0 0 0 0 0 0
0 0 0 0 0 0
0.084911615 -0.011607959 -0.073022939 228 26 28
0.083562098 -0.0037922247 -0.074824542 228 26 28
0.076518737 0.000124068 -0.087858841 228 26 28
0 0 0 0 0 0
0 0 0 0 0 0
0 0 0 0 0 0
0 0 0 0 0 0
0 0 0 0 0 0
0.092680469 0.024772398 -0.062935859 228 26 28
0.083521567 0.02963037 -0.078370057 228 26 28
0 0 0 0 0 0
0 0 0 0 0 0
0.0086255651 0.080197826 -0.11141472 0 0 68
0.020459732 0.058198076 -0.12017686 228 26 28
0.063712418 0.099435374 -0.1110431 116 0 185
0.041388478 0.10017367 -0.10345454 116 0 185
0.015962476 0.054900244 -0.11505138 0 0 68
0.065526634 0.1000915 -0.096285783 116 0 185
0.059256051 0.09928453 -0.10455216 116 0 185
0.056464531 0.099794112 -0.10467102 116 0 185
0 0 0 0 0 0
0.0062345387 0.10281684 -0.11072198 0 0 68
0.046671648 0.10102037 -0.12241145 228 26 28
0.056290943 0.098983034 -0.12198813 116 0 185
0.053520583 0.10116276 -0.080372863 116 0 185
0.066619195 0.080795042 -0.11424348 228 26 28
0.01052096 0.090482011 -0.11659545 0 0 68
0 0 0 0 0 0
0.039633315 0.10081086 -0.10950263 228 26 28
0.0072055208 0.10206356 -0.083352819 116 0 185
0.010375085 0.073665209 -0.11544018 0 0 68
0.077014685 0.053473651 -0.092353798 228 26 28
0 0 0 0 0 0
0 0 0 0 0 0
0 0 0 0 0 0
0 0 0 0 0 0
0 0 0 0 0 0
0 0 0 0 0 0
0 0 0 0 0 0
0 0 0 0 0 0
0 0 0 0 0 0
0.082190588 0.099649452 -0.091846131 116 0 185
0 0 0 0 0 0
0 0 0 0 0 0
0.10312232 0.08282616 -0.094194941 116 0 185
0.085564457 0.068914309 -0.080009013 228 26 28
0.077949777 0.058290284 -0.091283925 228 26 28
0.083892539 0.093799509 -0.086036131 228 26 28
0.09735696 0.092263155 -0.061304018 228 26 28
0.086010829 0.10035802 -0.065371573 116 0 185
0.091155998 0.10088196 -0.068825312 116 0 185
0 0 0 0 0 0
0.07433226 0.10059021 -0.070764683 116 0 185
0.082475126 0.099917613 -0.084674209 228 26 28
0.094621696 0.10134739 -0.068424605 228 26 28
0.12201392 0.080236509 -0.081368998 116 0 185
0.108747 0.081220627 -0.075661704 116 0 185
0.1021295 0.098825946 -0.063037656 228 26 28
0 0 0 0 0 0
0 0 0 0 0 0
0 0 0 0 0 0
0 0 0 0 0 0
0 0 0 0 0 0
0.10362268 -0.0037243811 -0.040023636 228 26 28
0 0 0 0 0 0
0 0 0 0 0 0
0.10144638 -0.019247986 -0.041540839 228 26 28
0 0 0 0 0 0
0.093109697 0.0030949626 -0.0060632695 247 129 191
0.096675575 -0.0034416008 -0.0080252429 247 129 191
0.087473318 0.0056014438 -0.0020110013 247 129 191
0.085471399 0.0035596874 -0.0020610602 247 129 191
0.08468312 -0.0001180906 0.0016291381 247 129 191
0.10701707 -0.0079724044 -0.013409063 247 129 191
0.11356299 -0.008909964 -0.017217387 247 129 191
0 0 0 0 0 0
0.11600085 0.0094984304 -0.028104672 247 129 191
0.10689019 -0.016837679 -0.01271493 247 129 191
0 0 0 0 0 0
0.11626667 -0.00024054231 -0.016304631 247 129 191
0 0 0 0 0 0
0.081352361 0.018087443 -0.00017918188 247 129 191
0 0 0 0 0 0
0.083873056 0.025674058 -0.0014925415 247 129 191
0 0 0 0 0 0
0 0 0 0 0 0
0.10810139 0.0204059 -0.012536806 247 129 191
0.11313596 0.021400582 -0.018027205 247 129 191
0.11272425 0.031490557 -0.018564114 247 129 191
0.097298831 0.067640908 -0.059751555 228 26 28
0.069549181 0.1030058 -0.038146105 116 0 185
0.081886463 0.10182222 -0.053381588 116 0 185
0.084803797 0.10168099 -0.052365206 116 0 185
0.088670217 0.10204997 -0.048397176 116 0 185
0.11647125 0.077863723 -0.050163351 228 26 28
0.10386561 0.091360636 -0.051734753 228 26 28
0.10687149 0.1005182 -0.04952487 116 0 185
0 0 0 0 0 0
0 0 0 0 0 0
0.088262275 0.053513728 -0.0050536986 247 129 191
0.092761375 0.048731919 -0.0067362911 247 129 191
0.099743001 0.066408306 -0.010529577 228 26 28
0.11729623 0.049307194 -0.018586852 247 129 191
0.1201498 0.054281957 -0.026306227 228 26 28
0 0 0 0 0 0
0.1076588 0.041384596 -0.012879591 247 129 191
0 0 0 0 0 0
0.076205395 0.092842713 0.0014682302 255 255 51
0 0 0 0 0 0
0.087767474 0.074991941 -0.0059865708 247 129 191
0.088265978 0.096895136 -0.0069456547 247 129 191
0 0 0 0 0 0
0.10488006 0.0936848 -0.016009191 247 129 191
0.10107835 0.084888577 -0.013874564 247 129 191
0 0 0 0 0 0
0 0 0 0 0 0
0 0 0 0 0 0
0 0 0 0 0 0
0 0 0 0 0 0
0 0 0 0 0 0
0 0 0 0 0 0
0 0 0 0 0 0
0 0 0 0 0 0
0 0 0 0 0 0
0 0 0 0 0 0
0 0 0 0 0 0
0 0 0 0 0 0
0 0 0 0 0 0
0 0 0 0 0 0
0 0 0 0 0 0
0.066217825 0.10337038 -0.064622402 116 0 185
0 0 0 0 0 0
0 0 0 0 0 0
0 0 0 0 0 0
0 0 0 0 0 0
0 0 0 0 0 0
0 0 0 0 0 0
0 0 0 0 0 0
0 0 0 0 0 0
0 0 0 0 0 0
0 0 0 0 0 0
0 0 0 0 0 0
0 0 0 0 0 0
0 0 0 0 0 0
0 0 0 0 0 0
0 0 0 0 0 0
0 0 0 0 0 0
0 0 0 0 0 0
0 0 0 0 0 0
0 0 0 0 0 0
0 0 0 0 0 0
0.025335252 0.10846693 -0.026985301 116 0 185
0.065153778 0.10433336 -0.047141802 116 0 185
0.059354328 0.10363143 -0.022410626 116 0 185
0.041503184 0.1046458 -0.023940807 116 0 185
0.027744364 0.10539695 -0.02801658 116 0 185
0.04995935 0.10313231 -0.050767049 116 0 185
0.055554304 0.10419931 -0.020588379 116 0 185
0.0066111563 0.11047546 -0.021470167 116 0 185
0.015621273 0.10892628 -0.032760046 116 0 185
0.039744373 0.10578806 -0.041579314 116 0 185
0.034224439 0.10711443 -0.025354791 116 0 185
0.015837288 0.10630625 -0.058290318 116 0 185
0.041563828 0.10587838 -0.0094917109 116 0 185
0.02603231 0.10537249 -0.036794119 116 0 185
0.013623459 0.10661563 -0.020906001 116 0 185
0.0089319879 0.10522137 -0.033547487 116 0 185
0.053603299 0.10471398 -0.0052970885 116 0 185
0.0083572315 0.11094678 -0.0032432796 0 255 0
0.08192528 0.10341123 -0.045272231 228 26 28
0.10448436 0.1128614 0.0016870314 247 129 191
0.071186796 0.10572624 -0.0090679405 255 255 51
0 0 0 0 0 0
0.098761849 0.10386193 -0.039475057 228 26 28
0.093187816 0.1042764 -0.010484396 247 129 191
0 0 0 0 0 0
0 0 0 0 0 0
0 0 0 0 0 0
0 0 0 0 0 0
0 0 0 0 0 0
0 0 0 0 0 0
0 0 0 0 0 0
0 0 0 0 0 0
0 0 0 0 0 0
0 0 0 0 0 0
0 0 0 0 0 0
0 0 0 0 0 0
0 0 0 0 0 0
0 0 0 0 0 0
0.032935787 0.25895473 -0.18699127 55 126 184
0.035593987 0.28322968 -0.19060823 55 126 184
0.025412269 0.23862468 -0.1854185 55 126 184
0.028053463 0.26631987 -0.18728672 55 126 184
0 0 0 0 0 0
0.028062208 0.24808143 -0.18634249 55 126 184
0 0 0 0 0 0
0 0 0 0 0 0
0 0 0 0 0 0
0 0 0 0 0 0
0 0 0 0 0 0
0 0 0 0 0 0
0.028722269 0.33964488 -0.18856077 55 126 184
0.032401696 0.32837453 -0.19175692 55 126 184
0.027509248 0.34572336 -0.18970071 55 126 184
0.023527307 0.29561237 -0.18542953 55 126 184
0.038558215 0.29637751 -0.18761829 255 127 0
0.038494378 0.32169762 -0.19057615 255 127 0
0.031648349 0.35073668 -0.18973505 55 126 184
0.035176244 0.3290396 -0.19452648 55 126 184
0 0 0 0 0 0
0 0 0 0 0 0
0 0 0 0 0 0
0 0 0 0 0 0
0 0 0 0 0 0
0 0 0 0 0 0
0 0 0 0 0 0
0 0 0 0 0 0
0 0 0 0 0 0
0 0 0 0 0 0
0.0099876216 0.24957538 -0.17404945 55 126 184
0.0074285455 0.24715327 -0.17416291 55 126 184
0.021281291 0.24908984 -0.17997807 55 126 184
0 0 0 0 0 0
0 0 0 0 0 0
0.027336689 0.255496 -0.18377925 55 126 184
0.049240556 0.23982297 -0.15604717 153 153 153
0.045328978 0.24145897 -0.15976256 153 153 153
0.052615762 0.25670546 -0.16060346 153 153 153
0.041349318 0.24807306 -0.17528789 255 127 0
0 0 0 0 0 0
0.048903227 0.246326 -0.16187681 255 127 0
0.043086983 0.25676563 -0.17002137 255 127 0
0.047748514 0.25002337 -0.16471964 255 127 0
0.026262702 0.27876541 -0.18392918 55 126 184
0.019852713 0.27847099 -0.1823577 55 126 184
0.0060302853 0.27979219 -0.17289966 55 126 184
0.054977857 0.2620354 -0.15446924 255 127 0
0.058508236 0.25868189 -0.16538456 55 126 184
0.038340177 0.27750269 -0.18168497 255 127 0
0.045218416 0.2650747 -0.16880769 255 127 0
0.038387544 0.26202422 -0.1830903 255 127 0
0.010173613 0.24207294 -0.1432505 153 153 153
0.032917131 0.24137014 -0.13199861 153 153 153
0.054412939 0.24235706 -0.13409379 153 153 153
0.04602199 0.24132793 -0.12817711 153 153 153
0.059138801 0.25842953 -0.14379866 255 127 0
0.042103641 0.24089082 -0.1295519 153 153 153
0.056298736 0.24058248 -0.13914444 153 153 153
0.058456741 0.28436437 -0.14743362 255 127 0
0.066128321 0.28620309 -0.13332263 255 127 0
0.056894496 0.28078887 -0.14859968 255 127 0
0.060169313 0.28913543 -0.14500976 255 127 0
0.059841432 0.26435196 -0.14182034 255 127 0
0 0 0 0 0 0
0.074520573 0.2585524 -0.16696768 55 126 184
0 0 0 0 0 0
0 0 0 0 0 0
0.055623457 0.30549842 -0.1538229 255 127 0
0.061596263 0.30318895 -0.14482893 255 127 0
0.0092666522 0.30899465 -0.17635801 55 126 184
0.043404721 0.31586829 -0.17665748 255 127 0
0.062192883 0.29872555 -0.1418318 255 127 0
0.0076345592 0.34780225 -0.17599064 55 126 184
0 0 0 0 0 0
0.066419564 0.28998101 -0.13375092 255 127 0
0.058290832 0.31699112 -0.15495317 255 127 0
0.0078798402 0.30596691 -0.17541446 55 126 184
0.020271579 0.2955552 -0.18327285 55 126 184
0.049512316 0.32641336 -0.16824771 255 127 0
0.065376177 0.33260047 -0.14012903 255 127 0
0.05654034 0.29146355 -0.15433136 255 127 0
0.052742001 0.34747607 -0.16494402 255 127 0
0.019269992 0.33779708 -0.18316899 55 126 184
0.047356598 0.30589929 -0.17138728 255 127 0
0.05287407 0.30531511 -0.15928996 255 127 0
0.041412685 0.30614167 -0.18174714 255 127 0
0.056537181 0.34188426 -0.15665165 255 127 0
0.068266362 0.34195477 -0.13776527 255 127 0
0.070333958 0.33360976 -0.13196713 255 127 0
0.071511894 0.34757853 -0.13227667 255 127 0
0.071983173 0.31052327 -0.13034602 255 127 0
0.072659262 0.31453973 -0.13041408 255 127 0
0.077718444 0.34578753 -0.1247348 255 127 0
0.028841816 0.40183824 -0.19194925 55 126 184
0.041026343 0.37826437 -0.18889534 255 127 0
0.027905807 0.37877974 -0.18908705 55 126 184
0.018305857 0.3729355 -0.18541384 55 126 184
0.04421249 0.39394006 -0.18868965 255 127 0
0.027239513 0.38409823 -0.1913504 55 126 184
0.025907934 0.38558346 -0.18810952 55 126 184
0 0 0 0 0 0
0 0 0 0 0 0
0 0 0 0 0 0
0.024518805 0.42818293 -0.18962201 55 126 184
0.029346002 0.45253354 -0.1887017 96 0 41
0.030794991 0.4280225 -0.1944102 55 126 184
0.040737506 0.44989437 -0.19643505 255 127 0
0.041476607 0.43131423 -0.19727868 255 127 0
0.019403426 0.45303366 -0.18694919 96 0 41
0.020853996 0.41991934 -0.18703747 55 126 184
0.018852578 0.44064045 -0.18827598 55 126 184
0.039254203 0.43656838 -0.20136224 55 126 184
0.0070791282 0.39569202 -0.17731965 55 126 184
0.051913507 0.38003129 -0.16959482 255 127 0
0.015662365 0.37185976 -0.18174197 55 126 184
0.045644373 0.37074235 -0.18197149 255 127 0
0.060212664 0.38454071 -0.15674175 255 127 0
0.066340148 0.3609789 -0.14659977 255 127 0
0.04728185 0.35412145 -0.17855924 255 127 0
0.06691286 0.37033018 -0.14500439 255 127 0
0.057049192 0.36273867 -0.1594436 255 127 0
0.064837776 0.4008278 -0.14914271 255 127 0
0.058318142 0.38435403 -0.1621262 255 127 0
0.0082889227 0.36468726 -0.17875162 55 126 184
0.0061403383 0.35520318 -0.17631181 55 126 184
0.05014009 0.41355744 -0.17629506 255 127 0
0.065546595 0.40695116 -0.15288024 255 127 0
0.056604907 0.41058442 -0.16455753 255 127 0
0.059181429 0.37005806 -0.15551755 255 127 0
0.010453467 0.38823351 -0.18182315 55 126 184
0.055219609 0.35341305 -0.16006866 255 127 0
0.075514607 0.37164226 -0.13195802 255 127 0
0.077491023 0.39634645 -0.12937202 255 127 0
0 0 0 0 0 0
0.071881145 0.3743608 -0.13519533 255 127 0
0.07571914 0.35835335 -0.1266109 255 127 0
0.072876483 0.39664578 -0.13487163 255 127 0
0 0 0 0 0 0
0.072570659 0.41370049 -0.14030702 255 127 0
0.073506787 0.37964675 -0.13190156 255 127 0
0 0 0 0 0 0
0.04837206 0.45376557 -0.18261875 96 0 41
0.057133641 0.45131564 -0.17255907 255 127 0
0.01104529 0.42055398 -0.18098576 55 126 184
0.054590765 0.41679612 -0.16977724 255 127 0
0.033128019 0.45554176 -0.17166126 96 0 41
0.061710335 0.45456067 -0.13420691 96 0 41
0.043284755 0.45675382 -0.13342877 96 0 41
0.043040585 0.45475695 -0.1535145 96 0 41
0.01589361 0.45859265 -0.12841013 96 0 41
0.0065884059 0.45562083 -0.14280173 96 0 41
0.0083661545 0.45385626 -0.17420624 96 0 41
0.04893551 0.44035602 -0.18124346 255 127 0
0.028431373 0.45345396 -0.17260329 96 0 41
0.049942415 0.44313282 -0.17966415 255 127 0
0.013195913 0.43181947 -0.18461233 55 126 184
0.076832302 0.44498169 -0.13361195 255 127 0
0.068330958 0.43177801 -0.15074219 255 127 0
0.080728307 0.43738881 -0.12717655 255 127 0
0.073482007 0.43769848 -0.14273821 255 127 0
0.073207192 0.43438452 -0.13853268 255 127 0
0.084735677 0.44133586 -0.12377375 255 127 0
0.08418677 0.44932625 -0.12401617 255 127 0
0.069340587 0.43220213 -0.14587192 255 127 0
0.017256301 0.24499916 -0.10603628 153 153 153
0.013778982 0.24514106 -0.08964555 153 153 153
0.043927535 0.244239 -0.10458478 153 153 153
0.042613197 0.24261685 -0.11234818 153 153 153
0.026374048 0.24438275 -0.079153903 153 153 153
0.053049278 0.24142519 -0.11910009 153 153 153
0.0085052419 0.24622862 -0.071502961 153 153 153
0.049215358 0.24259695 -0.10681093 153 153 153
0.026718743 0.24564336 -0.071233958 153 153 153
0.060801722 0.24210733 -0.10878017 153 153 153
0.025543094 0.24499437 -0.11304183 153 153 153
0.020208238 0.24532527 -0.095680028 153 153 153
0.020124258 0.24441551 -0.0866163 153 153 153
0.056460984 0.24350539 -0.1190068 153 153 153
0.034677502 0.24536923 -0.068212368 153 153 153
0.024303272 0.24541929 -0.10352014 153 153 153
0.017339589 0.24660186 -0.079326615 153 153 153
0.054221947 0.24577001 -0.078887105 153 153 153
0 0 0 0 0 0
0.073721476 0.2815845 -0.061736319 166 86 40
0.097236723 0.24365722 -0.080260612 255 127 0
0.09448994 0.24172232 -0.084355071 255 127 0
0.069582649 0.24391344 -0.10233973 153 153 153
0.069257461 0.24390125 -0.078938715 153 153 153
0.084073611 0.28347823 -0.10662751 255 127 0
0.085579395 0.2777749 -0.10300728 255 127 0
0.071893923 0.24317715 -0.11467557 153 153 153
0 0 0 0 0 0
0 0 0 0 0 0
0.085134402 0.28853893 -0.10135373 255 127 0
0.085811689 0.24602926 -0.066337645 166 86 40
0.083203524 0.25981811 -0.06377808 166 86 40
0.070836127 0.24459003 -0.085507274 153 153 153
0.084525317 0.24114431 -0.098925196 153 153 153
0.073051959 0.24985932 -0.11863275 255 127 0
0.088354081 0.24109864 -0.091054305 255 127 0
0.095059462 0.33230489 -0.093291506 255 127 0
0.07881593 0.31801233 -0.065332599 166 86 40
0.087146498 0.32027036 -0.10470882 255 127 0
0.081883408 0.30996031 -0.066712707 166 86 40
0.097785927 0.34810922 -0.088944048 255 127 0
0.083142862 0.31312743 -0.067690469 166 86 40
0.093503147 0.3171103 -0.093285076 255 127 0
0.089036152 0.3133122 -0.071330823 166 86 40
0 0 0 0 0 0
0.087550625 0.30171216 -0.067597188 166 86 40
0.092680156 0.30694929 -0.07091213 166 86 40
0.081600226 0.30466396 -0.064082734 166 86 40
0.099472918 0.30608693 -0.077331342 166 86 40
0.086757317 0.29782349 -0.099035829 255 127 0
0.076018058 0.3012045 -0.11803354 255 127 0
0.075458482 0.31476676 -0.12020606 255 127 0
0 0 0 0 0 0
0.055987157 0.25770789 -0.047728758 166 86 40
0.019246386 0.246802 -0.054135103 153 153 153
0.012506143 0.27302456 -0.025873922 166 86 40
0.04005276 0.25963825 -0.039109211 166 86 40
0.05936075 0.2675595 -0.052330058 166 86 40
0.018598381 0.26641229 -0.027319973 166 86 40
0.021363728 0.28455162 -0.02890351 166 86 40
0.057936948 0.26909018 -0.049758658 166 86 40
0.039369542 0.2452687 -0.057085879 153 153 153
0.061247662 0.35066646 -0.05700177 166 86 40
0.060901709 0.30811957 -0.055216078 166 86 40
0.031265792 0.31175104 -0.037673868 166 86 40
0.058438111 0.2924481 -0.051093195 166 86 40
0.029971976 0.35138932 -0.036565259 166 86 40
0.048226651 0.32658225 -0.048401855 166 86 40
0.013764352 0.32941201 -0.026383312 166 86 40
0.039299343 0.31492117 -0.040472966 166 86 40
0.02849336 0.33644721 -0.034741279 166 86 40
0.0079146568 0.34258458 -0.02374634 166 86 40
0.011946402 0.33564562 -0.027823839 166 86 40
0.026453076 0.2985054 -0.034046929 166 86 40
0.054155506 0.30590215 -0.049387321 166 86 40
0.054129854 0.33856726 -0.050320126 166 86 40
0.066831738 0.34258461 -0.059972845 166 86 40
0.030723196 0.32736054 -0.036075454 166 86 40
0.068095118 0.31001925 -0.058902428 166 86 40
0.072397709 0.29871455 -0.059059005 166 86 40
0.080936223 0.35961613 -0.12100829 255 127 0
0.082855515 0.38006556 -0.11975809 255 127 0
0.078918926 0.36648402 -0.12033431 255 127 0
0.083187103 0.41157773 -0.11842476 255 127 0
0.086745329 0.40867966 -0.11640456 255 127 0
0.090556689 0.39132398 -0.10320456 255 127 0
0.086391129 0.40223607 -0.11507888 255 127 0
0.087472282 0.40574452 -0.11456684 255 127 0
0.069131628 0.37677023 -0.061696015 166 86 40
0.075418949 0.36970511 -0.066013217 166 86 40
0.07178425 0.3606061 -0.063206159 166 86 40
0.10317498 0.35230345 -0.077698641 255 127 0
0.092620872 0.41025782 -0.074555904 166 86 40
0.070575684 0.39229959 -0.063149638 166 86 40
0.09888716 0.40131816 -0.079803117 166 86 40
0.084921539 0.38859782 -0.069334686 166 86 40
0.079765201 0.40323278 -0.066756465 166 86 40
0.094439432 0.40537432 -0.076160118 166 86 40
0.087700419 0.38548514 -0.073692523 166 86 40
0.088181801 0.40591082 -0.072588839 166 86 40
0.10171907 0.40144736 -0.080527648 166 86 40
0.10211549 0.41144773 -0.085018717 255 127 0
0.10424174 0.40551686 -0.081507891 166 86 40
0.10436355 0.39869985 -0.080586977 255 127 0
0.020234318 0.45910162 -0.10723449 96 0 41
0.063891269 0.44895193 -0.06226179 166 86 40
0.063216209 0.45683584 -0.097595073 96 0 41
0.018976031 0.45779833 -0.10520042 96 0 41
0.065510802 0.45816135 -0.074424915 96 0 41
0.0094929617 0.45997882 -0.10231002 96 0 41
0.049107116 0.45635545 -0.11324763 96 0 41
0.022364119 0.46055654 -0.075322255 96 0 41
0.036883049 0.45674711 -0.11211382 96 0 41
0.012544629 0.46016851 -0.066243127 96 0 41
0.04024028 0.46009779 -0.074409463 96 0 41
0.0085273385 0.45930576 -0.094851814 96 0 41
0.052089434 0.45899063 -0.093286678 96 0 41
0.050245468 0.45808411 -0.11906552 96 0 41
0.0065635028 0.45922747 -0.10737018 96 0 41
0.091989838 0.45032713 -0.077759266 166 86 40
0.078411654 0.45733923 -0.10201912 96 0 41
0.095189072 0.42759523 -0.078876108 166 86 40
0.075304203 0.45750663 -0.081547715 96 0 41
0.088242061 0.45661697 -0.11523582 255 127 0
0.080958195 0.44844157 -0.069522858 166 86 40
0.092180334 0.41526756 -0.10473101 255 127 0
0.099979319 0.43039766 -0.082445011 166 86 40
0.072670631 0.45251387 -0.064710625 166 86 40
0.083700135 0.46024138 -0.071461432 96 0 41
0.10179733 0.42461336 -0.092050247 255 127 0
0.082540728 0.45776722 -0.10156082 96 0 41
0.087541908 0.4569574 -0.11307095 96 0 41
0.085901394 0.45638362 -0.090398379 96 0 41
0.080540009 0.44550741 -0.06911806 166 86 40
0.097632468 0.42513412 -0.094900697 255 127 0
0.1005991 0.44627136 -0.09555608 255 127 0
0.10520153 0.41828015 -0.084894724 166 86 40
0.088761374 0.4175351 -0.11299068 255 127 0
0.040146172 0.37208998 -0.042912383 166 86 40
0.015899545 0.35996938 -0.028786618 166 86 40
0.042919856 0.3831667 -0.04589802 166 86 40
0.047961876 0.36161688 -0.049842536 166 86 40
0.015034874 0.35214767 -0.029583538 166 86 40
0.046994578 0.40150642 -0.048121162 166 86 40
0.021256818 0.3598415 -0.033417795 166 86 40
0.04992735 0.390329 -0.049461976 166 86 40
0.065002277 0.40214196 -0.058844678 166 86 40
0.01410336 0.39512074 -0.029134696 166 86 40
0.065929279 0.40044409 -0.058766861 166 86 40
0.0082721943 0.38095894 -0.026922328 166 86 40
0.045884922 0.39168724 -0.047527239 166 86 40
0.032798633 0.351706 -0.038413949 166 86 40
0.019152673 0.42346752 -0.035093177 166 86 40
0.021680567 0.46216407 -0.052488994 96 0 41
0.025070636 0.41469812 -0.035941206 166 86 40
0.045620732 0.42374381 -0.050543666 166 86 40
0.036483575 0.44837576 -0.044511553 166 86 40
0.030443996 0.45294598 -0.042142872 166 86 40
0.057904061 0.44133931 -0.055991419 166 86 40
0.031640753 0.42330578 -0.042664632 166 86 40
0.037503097 0.41942063 -0.043954618 166 86 40
0.033751179 0.42199808 -0.041999359 166 86 40
-0.12345752 -0.41795626 0.021563636 77 175 74
-0.12926385 -0.42152816 0.011694574 77 175 74
-0.13419044 -0.43367192 0.0051790369 77 175 74
-0.12979893 -0.46432424 0.016092017 77 175 74
-0.12341873 -0.46863928 0.027573332 77 175 74
-0.12234617 -0.47475716 0.030231187 77 175 74
-0.13632825 -0.48867568 0.0058809067 77 175 74
-0.12149747 -0.49200067 0.034002766 77 175 74
-0.13494541 -0.50711536 0.011893958 77 175 74
-0.11740251 -0.50399774 0.01232997 77 175 74
-0.11690059 -0.49493751 0.013738494 77 175 74
-0.093591698 -0.50661123 0.018631019 255 255 180
-0.088221267 -0.50767827 0.0098966574 255 255 180
-0.1139134 -0.50626743 0.019124763 255 255 180
-0.097399026 -0.50733042 0.0042331312 255 255 180
-0.058876604 -0.5074122 0.029366704 255 255 180
-0.10555441 -0.47321022 0.030739579 77 175 74
-0.11414335 -0.47896734 0.01641687 77 175 74
-0.1116552 -0.47152612 0.020922203 77 175 74
-0.11386239 -0.50035757 0.048125871 77 175 74
-0.11304267 -0.49744505 0.047236308 77 175 74
-0.10261365 -0.51202214 0.052982971 255 255 180
-0.10572974 -0.50825113 0.062957004 77 175 74
-0.10436567 -0.49181482 0.035932809 77 175 74
-0.095577024 -0.49940997 0.05237795 77 175 74
-0.1108881 -0.4921996 0.05097653 77 175 74
-0.10742047 -0.5114367 0.055868473 255 255 180
-0.098206162 -0.50560135 0.047353923 255 255 180
-0.10729815 -0.51246506 0.037235707 255 255 180
-0.057725858 -0.50630391 0.044066098 255 255 180
-0.068876982 -0.506984 0.037751254 255 255 180
-0.07105992 -0.50682682 0.039200809 255 255 180
-0.093123205 -0.46168825 0.05047629 77 175 74
-0.091489471 -0.48173112 0.055949736 77 175 74
-0.047173921 -0.50622618 0.051223539 255 255 180
-0.041473348 -0.50754184 0.047531448 255 255 180
-0.011933015 -0.51002455 0.012478838 255 255 180
-0.041644737 -0.5069499 0.051502857 255 255 180
-0.027415855 -0.50977641 0.012632923 255 255 180
-0.039307654 -0.50796533 0.035205279 255 255 180
0.0020999934 -0.50923085 0.035021897 255 255 180
-0.11033084 -0.45152843 0.021061173 77 175 74
-0.11457483 -0.42967433 0.0097174887 77 175 74
-0.11750199 -0.4360044 0.032724939 77 175 74
-0.11178145 -0.42729723 0.016190579 77 175 74
-0.10029382 -0.39823976 0.031043503 77 175 74
-0.11357804 -0.41355661 0.010015135 77 175 74
-0.10119934 -0.39825141 0.030623645 77 175 74
-0.1057758 -0.41417009 0.023567829 77 175 74
-0.11332316 -0.42137325 0.012049183 77 175 74
-0.11714184 -0.4182184 0.003865181 77 175 74
-0.11093387 -0.40223423 0.012866133 77 175 74
-0.099858679 -0.45157185 0.037876889 77 175 74
-0.11023695 -0.45073247 0.048606336 77 175 74
-0.10496727 -0.42816815 0.054476056 77 175 74
-0.10323425 -0.42532834 0.056966282 77 175 74
-0.11259063 -0.4243196 0.040427469 77 175 74
-0.089903541 -0.42090407 0.053484648 77 175 74
-0.087902911 -0.40832314 0.05531577 77 175 74
-0.10352585 -0.42141783 0.05598741 77 175 74
-0.094920836 -0.40933734 0.042000495 77 175 74
-0.10295162 -0.40749374 0.056252152 77 175 74
-0.084089242 -0.40495056 0.060969491 77 175 74
-0.086788774 -0.42109421 0.057816137 77 175 74
-0.082643457 -0.39999431 0.061985467 77 175 74
-0.087045223 -0.48782268 0.093042262 77 175 74
-0.08064197 -0.50690818 0.077528514 77 175 74
-0.072650656 -0.50319612 0.090323478 77 175 74
-0.085499816 -0.50041687 0.069187187 77 175 74
-0.082059577 -0.50499028 0.074805811 77 175 74
-0.07778094 -0.49653175 0.081501372 77 175 74
-0.072046295 -0.50489718 0.073160678 255 255 180
-0.075676434 -0.49964595 0.068925925 255 255 180
-0.074273281 -0.50174117 0.086309105 77 175 74
-0.085056543 -0.47588301 0.093672268 77 175 74
-0.070823267 -0.48677927 0.092236735 77 175 74
-0.07556159 -0.45820665 0.080860585 77 175 74
-0.072324291 -0.48340991 0.090969145 77 175 74
-0.08523415 -0.460664 0.064465828 77 175 74
-0.081239514 -0.4892796 0.10197269 77 175 74
-0.070755035 -0.50982958 0.11575781 255 255 180
-0.075358681 -0.51019382 0.09823896 255 255 180
-0.061320964 -0.49820167 0.11129646 77 175 74
-0.063239381 -0.46473467 0.10297778 77 175 74
-0.067396022 -0.46809971 0.12494961 77 175 74
-0.075562581 -0.48608741 0.11237057 77 175 74
-0.07186877 -0.46706858 0.11624683 77 175 74
-0.082858503 -0.47332567 0.098872475 77 175 74
-0.068396427 -0.45885503 0.12241037 77 175 74
-0.014263269 -0.50360554 0.11666775 255 255 180
-0.0088251336 -0.50631952 0.078891054 255 255 180
-0.018612329 -0.50572795 0.079133615 255 255 180
-0.013755272 -0.50572443 0.083551444 255 255 180
-0.020265048 -0.50591999 0.089927979 255 255 180
-0.011442707 -0.50659096 0.077083543 255 255 180
-0.040104963 -0.50514084 0.074875012 255 255 180
-0.040479202 -0.50415462 0.10429692 255 255 180
-0.097366437 -0.45191565 0.071036533 77 175 74
-0.08271385 -0.43982655 0.066438168 77 175 74
-0.077925801 -0.4333761 0.074234799 77 175 74
-0.084552102 -0.44208348 0.064813234 77 175 74
-0.072913393 -0.45408022 0.085894115 77 175 74
-0.071984835 -0.44528168 0.086651601 77 175 74
-0.086691245 -0.43570444 0.086112954 77 175 74
-0.073996738 -0.4434557 0.083595589 77 175 74
-0.087673105 -0.39801317 0.082012564 77 175 74
-0.09010309 -0.39796969 0.077765524 77 175 74
-0.091961965 -0.40950969 0.075977251 77 175 74
-0.088753588 -0.3942154 0.078475282 77 175 74
-0.077238373 -0.39442384 0.070470072 77 175 74
-0.071749903 -0.40820697 0.081665419 77 175 74
-0.071191192 -0.40202051 0.083531871 77 175 74
-0.067192197 -0.42133665 0.091515429 77 175 74
-0.0696529 -0.40007925 0.084227204 77 175 74
-0.061559137 -0.43049985 0.10193887 77 175 74
-0.059832543 -0.45365894 0.10812131 77 175 74
-0.059341896 -0.44777715 0.10952098 77 175 74
-0.075300768 -0.43090755 0.10616544 77 175 74
-0.05763112 -0.43769014 0.11121149 77 175 74
-0.07901302 -0.43261957 0.10080918 77 175 74
-0.065098487 -0.42863694 0.097020477 77 175 74
-0.076447189 -0.45233372 0.10668452 77 175 74
-0.056336824 -0.40901151 0.10969947 77 175 74
-0.058188178 -0.39577946 0.10440319 77 175 74
-0.058153778 -0.41830438 0.10826101 77 175 74
-0.057257779 -0.39979863 0.10647678 77 175 74
-0.059625793 -0.40152493 0.10372079 77 175 74
-0.05762643 -0.42138347 0.10949859 77 175 74
-0.051670905 -0.43676379 0.12104283 77 175 74
-0.054815557 -0.42441639 0.1127709 77 175 74
-0.04926521 -0.43369126 0.12516131 77 175 74
